1013.4665 1022.2285 106.3795 141 115 87
1011.6755 1022.6285 104.9775 159 140 119
1011.9325 1022.6535 106.6585 121 97 73
1011.9755 1022.6445 105.7775 160 142 123
1012.9855 1022.6565 105.5215 161 138 115
1011.6735 1022.8825 106.8725 175 159 137
1012.1795 1022.6575 105.9315 169 154 135
1013.4415 1021.6765 106.0725 146 124 101
1012.2815 1022.6075 106.8645 98 77 57
1013.2495 1023.2015 106.8115 165 162 155
1013.4765 1022.1885 105.0875 144 115 86
1013.4695 1021.4285 106.2255 148 120 92
1012.2675 1022.6595 105.9305 162 145 128
1012.5275 1022.6285 104.9225 158 140 120
1013.0675 1022.4255 104.8765 134 107 81
1012.0425 1022.6025 106.8555 105 89 76
1013.3935 1021.9295 106.6155 165 146 124
1011.6165 1022.7715 106.8935 164 147 128
1013.3855 1021.8785 105.8735 145 123 100
1013.4255 1021.7275 106.6275 166 151 133
1013.4275 1021.6185 105.7735 152 127 101
1011.9255 1022.6855 106.2255 151 134 117
1013.4415 1021.8715 106.1775 147 119 92
1013.3875 1021.8745 106.5895 133 110 88
1013.4205 1022.1755 106.6195 131 107 85
1012.7635 1022.6575 106.6165 147 126 106
1013.1585 1022.5705 105.8305 149 131 110
1013.4695 1021.8295 106.6565 182 170 151
1013.4215 1021.9725 106.5895 114 87 64
1012.0715 1022.6325 105.1255 158 140 122
1013.2975 1022.5375 106.1065 140 121 99
1013.4005 1021.8245 105.8145 201 153 104
1012.4765 1022.6385 105.5235 157 138 118
1013.4665 1021.9235 106.4225 138 111 84
1012.7155 1022.6465 105.7175 182 164 143
1013.1445 1022.5405 105.2745 123 99 78
1012.5265 1022.6375 105.3235 150 134 116
1011.7695 1022.6405 105.4295 161 144 127
1012.0285 1022.5785 106.8745 84 62 45
1013.2465 1022.2985 105.7565 76 61 51
1012.0785 1022.6535 105.6645 172 157 139
1012.5235 1022.6335 105.2755 153 137 120
1012.0895 1022.5965 106.7405 119 90 68
1013.0475 1022.5105 105.0425 160 145 133
1013.2055 1022.3295 105.3215 133 106 80
1013.4455 1021.7695 106.2835 131 103 76
1013.3755 1022.6205 106.3745 140 121 100
1012.2255 1022.6795 106.4745 160 144 125
1013.5295 1022.6125 106.8635 110 90 74
1013.4695 1022.5325 106.7105 133 115 97
1011.4625 1022.5965 106.7175 144 125 108
1012.0245 1022.6575 106.6165 145 124 104
1011.6805 1022.6535 105.6835 164 149 131
1013.5275 1022.2685 104.9705 132 104 76
1012.7765 1022.6435 105.5755 143 123 104
1013.2775 1022.6325 106.5265 146 126 106
1013.1295 1023.0255 106.8315 175 160 139
1013.0805 1022.3765 104.8225 143 120 97
1013.3325 1022.0775 105.8245 158 138 115
1012.6265 1022.6365 105.3735 156 137 118
1012.8715 1022.6855 106.1775 142 125 107
1012.8755 1022.6495 105.9635 78 66 59
1013.4165 1022.0235 106.6295 162 144 122
1013.1285 1022.5725 105.1265 143 120 97
1012.1655 1022.6525 105.7935 143 125 107
1011.5675 1022.9785 106.8585 202 188 166
1012.5415 1023.2635 106.8175 177 162 143
1013.4465 1021.3845 106.2735 170 128 88
1012.5785 1022.6275 104.9745 153 136 116
1012.9475 1022.7035 106.0485 170 159 141
1012.9185 1022.6495 105.7335 146 122 99
1011.9185 1022.9365 106.8605 174 156 136
1013.2085 1022.5615 105.9325 149 131 110
1013.3915 1022.2295 106.0745 169 144 117
1013.3725 1022.6225 106.6225 134 115 95
1013.4405 1021.5965 105.7755 126 106 87
1013.4805 1021.4265 105.9255 146 117 87
1013.2505 1022.2955 104.9575 143 127 109
1011.7785 1022.6305 106.6755 154 135 114
1012.1285 1022.6295 104.8785 171 154 135
1013.4255 1022.5835 106.8705 103 79 58
1013.4285 1022.0615 105.2625 118 92 69
1013.4615 1022.0265 106.3255 149 123 96
1012.0715 1022.6395 105.2745 156 139 121
1011.5765 1022.6735 106.4255 167 151 133
1012.4245 1022.6375 105.5285 150 132 112
1013.4725 1021.5745 105.9255 147 125 100
1013.4685 1021.4245 106.1265 144 117 89
1013.2755 1022.8535 106.8695 182 166 141
1013.2155 1023.1175 106.8185 176 160 140
1013.4625 1021.3815 106.4255 133 105 78
1013.0245 1022.6525 106.6185 166 148 129
1013.4565 1022.4685 106.4355 142 120 96
1013.4615 1022.1795 106.2775 146 121 95
1012.0235 1022.6375 105.2235 152 136 119
1013.5245 1021.9705 105.3175 121 94 69
1012.1325 1022.9745 106.8565 191 176 153
1013.4735 1021.5735 106.6355 185 170 150
1011.4745 1022.4875 106.8945 135 123 115
1012.5305 1022.5995 106.7235 124 102 82
1012.7745 1022.6215 104.8765 135 116 97
1013.3665 1022.0255 105.8765 144 128 107
1013.4765 1022.0265 105.2785 107 80 58
1012.6245 1022.6875 106.4255 160 143 126
1013.5175 1021.3675 106.6315 181 164 141
1012.8725 1022.6245 105.1755 154 136 117
1013.0255 1022.6085 105.0695 147 128 105
1011.9765 1022.6435 105.5705 159 141 123
1011.7185 1022.4915 106.9185 131 121 110
1011.6265 1022.6535 105.5355 162 142 120
1012.3765 1022.6375 105.4755 148 130 111
1012.5225 1022.6515 105.3325 168 156 140
1012.1245 1022.6395 105.6275 148 129 111
1012.9675 1022.6385 106.5835 163 148 135
1012.1265 1022.6855 106.2285 151 135 117
1013.4545 1022.1615 106.1905 123 106 89
1012.9265 1022.6415 105.5185 145 125 105
1013.0715 1022.6305 105.4785 151 132 113
1012.6755 1022.6635 105.8765 156 139 120
1012.5265 1022.6295 105.0745 155 138 120
1012.6835 1022.6565 105.7275 155 139 121
1011.5355 1023.2865 106.8405 208 197 175
1013.4675 1021.4255 106.3785 129 102 76
1013.1405 1022.5825 105.5735 146 121 96
1013.2475 1022.1445 105.2365 119 92 68
1013.1105 1022.6185 105.6745 140 118 94
1012.7235 1022.6765 106.0265 166 149 131
1012.7935 1022.6495 105.8145 150 122 95
1013.0265 1022.6715 106.4715 156 137 118
1013.1535 1022.5215 105.1805 143 123 100
1012.0435 1022.6575 105.1195 169 158 140
1011.6185 1022.6545 105.7275 160 142 124
1013.4265 1022.6195 106.6255 132 110 88
1013.3725 1022.1745 105.9785 157 136 112
1013.3835 1022.0405 105.2865 100 79 60
1013.1955 1022.2825 105.3265 128 103 79
1012.8305 1022.6395 105.4245 152 136 120
1011.4465 1023.0825 106.8485 176 159 141
1013.4475 1022.0835 106.2655 175 140 103
1013.4145 1022.3725 106.2275 144 124 100
1012.5255 1022.6295 105.0235 148 129 110
1013.1395 1022.5705 105.4795 146 121 95
1013.3085 1022.1795 105.7365 177 151 123
1013.4885 1021.3795 106.0285 137 111 85
1013.4345 1021.6275 105.8745 161 140 116
1011.5655 1022.7025 106.9065 165 147 125
1013.5235 1022.4095 104.7665 139 111 82
1012.1265 1022.6345 106.6755 146 127 107
1011.6745 1022.6075 106.7725 115 95 77
1012.3235 1022.6885 106.4245 160 143 125
1011.9285 1022.6385 105.4745 168 149 128
1013.2815 1022.2995 104.9505 139 112 87
1011.5005 1022.9825 106.8585 175 157 135
1011.9755 1022.6315 105.0745 157 138 119
1011.9235 1022.5775 106.8715 87 68 53
1011.4145 1022.7445 106.8995 206 190 164
1011.4695 1022.5915 106.8245 136 118 100
1011.9775 1022.5935 106.7855 133 114 95
1011.6215 1022.6805 106.2765 165 149 130
1012.6355 1022.9655 106.8545 202 190 168
1012.2595 1023.1445 106.8345 178 161 143
1012.9115 1022.5525 106.5965 65 47 33
1012.8265 1022.5925 106.8195 120 100 81
1012.1255 1022.6355 105.2195 157 140 122
1012.3745 1022.6765 106.0765 151 137 121
1013.3655 1021.4755 106.5265 88 72 59
1012.6345 1022.6165 106.9235 188 174 150
1012.4705 1022.9345 106.8585 181 165 146
1012.8265 1022.6255 105.1745 157 139 120
1013.4605 1021.6795 105.6135 157 123 90
1013.4595 1021.8195 106.3225 142 119 92
1012.4745 1022.6275 104.9265 160 143 124
1011.4755 1022.4885 106.9115 158 149 143
1012.5175 1022.4915 106.8985 179 159 134
1013.3195 1022.4215 106.0255 139 121 100
1012.2465 1022.6505 105.4545 172 161 143
1011.5695 1022.6575 105.6155 166 151 133
1012.9365 1022.6275 106.9345 183 163 140
1012.5735 1022.6325 105.2705 165 147 128
1012.2255 1022.6385 105.7245 167 150 131
1013.1615 1022.8565 106.8705 174 156 132
1012.9725 1022.6725 105.9315 132 117 102
1012.1425 1023.3305 106.8295 188 173 153
1013.4615 1021.9215 106.3705 147 119 90
1013.3335 1022.0565 105.2615 116 89 66
1013.4365 1022.3255 106.2745 146 124 102
1012.6265 1022.6545 105.7265 160 143 125
1013.4775 1022.2225 106.5785 105 79 56
1013.4235 1021.9375 105.3415 118 96 76
1013.4715 1022.3105 104.9155 135 108 80
1012.8645 1022.5985 106.7395 134 115 98
1013.2715 1022.3095 104.9705 134 112 90
1013.4785 1022.6095 106.7755 133 114 95
1012.5225 1022.6385 105.4225 162 145 126
1012.1755 1022.6765 106.0765 175 159 142
1011.8245 1022.6155 106.7275 139 119 100
1013.4325 1021.9265 106.0775 125 104 83
1012.8285 1022.6605 105.7285 156 138 118
1012.9755 1022.5655 106.9395 186 170 148
1013.2845 1022.1295 105.6255 163 144 119
1013.3895 1022.4305 106.2195 172 149 122
1013.4465 1021.6945 105.5485 105 91 76
1012.9275 1022.6185 105.0255 154 136 118
1013.2085 1022.3705 105.4845 162 141 116
1013.2545 1022.2195 105.5805 146 124 100
1013.1445 1022.5735 105.5285 151 126 100
1011.8705 1022.9185 106.8665 168 150 130
1013.4625 1021.7285 106.3265 142 113 83
1013.2815 1021.9745 105.3785 144 121 96
1013.3855 1022.6055 106.8195 150 126 105
1012.7775 1022.6755 106.0215 148 132 117
1011.4835 1022.6385 106.5365 159 145 133
1011.8295 1022.5775 106.9335 198 185 167
1011.9225 1022.6395 105.3265 176 159 140
1013.0785 1022.5895 105.0255 143 122 101
1013.2455 1022.0735 105.4705 172 158 141
1011.7695 1022.6535 105.6805 137 124 116
1012.0285 1022.5855 106.4885 138 118 102
1013.2935 1021.9495 105.3395 82 60 47
1011.7275 1022.6715 106.5235 158 142 126
1012.1025 1022.6515 105.1185 170 161 146
1013.4665 1021.3735 106.3785 127 103 77
1012.5255 1022.7025 106.3235 164 145 121
1013.2715 1022.5925 106.7775 135 117 100
1012.5755 1022.6535 105.7305 147 133 119
1012.3765 1022.4895 106.9175 164 160 155
1012.8715 1022.6175 104.9755 142 125 109
1013.4525 1022.4615 106.3995 126 108 86
1012.5225 1022.6615 106.5715 148 129 110
1013.1655 1022.4195 105.0305 158 139 117
1013.4425 1021.4015 106.3985 105 79 56
1013.4365 1022.5245 106.4245 157 134 110
1013.4705 1022.5935 106.8225 144 122 102
1012.7275 1022.6625 105.8225 155 138 120
1012.0265 1022.6425 105.6245 151 136 120
1012.9275 1022.6375 106.6245 134 116 97
1013.4595 1022.3735 106.3785 147 121 94
1013.4135 1022.4225 106.2765 148 127 102
1013.4245 1023.2335 106.8115 174 158 139
1011.5745 1022.6745 106.3755 162 145 127
1011.5775 1022.6755 106.1265 162 147 130
1012.1315 1022.6325 105.0245 162 144 125
1013.3785 1021.6745 106.5795 131 115 99
1012.3255 1022.6435 105.9865 147 123 101
1012.5005 1022.6495 106.4755 60 49 43
1013.0465 1022.6455 105.8705 87 70 60
1012.6745 1022.6885 106.2285 161 145 129
1013.3665 1022.6145 106.3235 133 116 99
1013.0715 1022.6595 105.7725 157 140 121
1013.0765 1022.6755 106.1245 142 127 110
1013.2325 1022.6595 106.3665 161 141 122
1013.4555 1021.6115 105.7155 138 118 96
1012.3245 1022.6535 105.3855 194 178 159
1013.3615 1021.9285 105.7755 147 124 99
1013.4205 1021.6775 105.8775 140 118 96
1012.7395 1022.7055 106.2295 172 160 147
1013.4455 1021.4325 106.4355 126 93 65
1012.9365 1023.0665 106.8295 191 175 151
1012.5715 1023.1185 106.8305 197 183 161
1011.7235 1022.6545 105.7815 172 160 146
1013.4735 1022.1805 106.4255 153 124 97
1012.6305 1022.6065 106.8265 152 135 114
1011.9815 1022.4885 106.8965 144 146 158
1013.1585 1022.6525 105.9465 161 149 127
1012.8145 1022.7015 106.1205 180 161 136
1012.0245 1022.6735 106.0265 165 149 132
1012.3285 1022.6305 104.9785 158 140 121
1011.9245 1022.8605 106.8775 188 172 152
1013.3085 1022.1135 105.6285 135 119 98
1012.7235 1022.6385 106.5805 140 124 106
1011.5255 1022.4855 106.8885 100 96 99
1013.1285 1022.9495 106.8505 163 147 122
1012.5285 1022.6405 105.7255 164 148 132
1012.1265 1022.6285 104.9785 162 144 124
1011.9295 1022.5345 106.5195 57 40 32
1011.7305 1022.6305 105.0235 164 148 129
1013.3785 1021.9265 105.3745 155 149 138
1012.9265 1022.4975 106.8975 82 70 61
1012.0895 1022.5275 106.4835 102 79 64
1012.0065 1022.6525 105.2475 173 161 145
1012.7765 1022.6885 106.3225 154 138 122
1012.3285 1022.6385 105.3755 143 125 107
1011.8325 1022.6545 105.5375 124 111 100
1013.0735 1022.6165 105.2755 146 127 107
1013.2315 1022.6445 106.3225 136 116 97
1012.3795 1022.7065 106.3785 170 152 127
1012.2425 1022.6475 105.9695 108 89 73
1013.2905 1022.0765 105.5685 141 123 103
1012.9275 1022.6635 105.7715 132 115 97
1012.6805 1022.6825 106.9105 178 163 140
1012.0775 1022.6415 105.6785 161 145 127
1013.4805 1023.1265 106.8235 204 191 170
1012.0655 1022.6535 105.8755 174 160 147
1013.3775 1021.5725 106.5755 143 123 101
1012.8265 1022.6735 105.9245 165 148 129
1013.2775 1022.3935 104.8385 130 103 77
1012.9755 1022.6795 106.1235 145 126 108
1012.0685 1022.9665 106.8595 176 158 136
1011.5215 1022.6475 105.9095 163 137 109
1012.3285 1022.6055 106.8665 105 82 64
1011.5275 1022.6455 105.7685 166 147 128
1011.9665 1022.6515 105.4235 158 144 131
1011.7015 1022.7015 106.2455 163 151 139
1012.4595 1022.6395 106.5255 179 158 142
1013.5295 1021.9385 105.3385 118 92 69
1012.3185 1022.6515 105.8435 174 161 147
1013.4645 1021.5275 106.2725 145 118 89
1012.8275 1022.6505 106.6115 98 66 43
1013.1955 1022.4855 105.8205 172 149 122
1012.6295 1022.6245 104.9235 151 133 114
1012.6265 1022.6345 105.2755 147 128 108
1013.1615 1022.6575 105.9805 141 124 105
1013.4375 1021.6755 106.0275 164 141 116
1012.0755 1022.6755 106.5285 162 145 126
1012.2775 1022.6215 106.7245 143 123 104
1013.4785 1022.3725 106.6925 235 254 255
1013.2795 1023.1845 106.8105 180 164 144
1011.8775 1022.6425 105.8245 169 154 138
1011.7635 1022.8335 106.8805 185 170 147
1012.1235 1022.6535 105.8725 171 157 142
1013.3975 1021.9195 105.9255 149 128 105
1013.4485 1021.4085 106.1545 139 109 83
1013.4265 1021.8735 106.5805 99 72 50
1013.2225 1022.3775 104.8815 131 108 86
1013.1565 1022.5145 105.1345 139 119 100
1012.1265 1022.6385 105.2785 156 137 117
1012.3805 1022.6435 105.9815 173 152 121
1011.8735 1022.6335 104.8785 161 145 127
1012.9585 1023.3425 106.7835 159 143 120
1011.9245 1022.6385 105.5255 157 141 124
1012.2365 1022.5935 106.7755 194 173 148
1012.8265 1022.6225 105.0765 154 136 118
1013.3295 1022.1785 105.8805 149 128 104
1012.2715 1022.5645 106.5205 147 129 113
1012.4665 1022.6535 105.5575 170 157 140
1013.0395 1022.4055 104.8425 161 150 139
1012.6235 1022.6545 106.6055 143 118 95
1013.3435 1022.3315 106.0205 154 134 111
1012.1185 1022.6385 106.5855 125 110 97
1013.0255 1022.6045 106.8295 118 96 78
1012.5745 1022.6605 105.8775 154 138 120
1013.3405 1021.5915 106.5075 89 64 49
1011.7235 1022.6795 106.4225 169 153 136
1012.8735 1022.6765 106.9195 211 197 173
1011.9765 1022.5775 106.8715 80 60 44
1013.4465 1021.8045 106.5425 144 124 93
1013.3725 1022.5875 106.7215 133 114 94
1013.4715 1022.0765 106.5755 89 61 40
1013.2305 1022.4075 104.8255 145 124 102
1013.1265 1022.6455 106.5755 148 128 107
1011.8255 1022.6295 104.8255 155 139 121
1011.4905 1022.6425 106.4785 255 235 209
1012.1215 1022.6575 105.9285 172 156 139
1012.2275 1022.6405 105.5725 161 144 126
1011.7295 1022.6845 106.2735 156 140 123
1013.3575 1023.1995 106.8105 206 195 173
1011.5775 1022.6735 106.0765 156 141 125
1013.1615 1022.5225 105.7285 145 125 102
1013.4945 1021.3725 105.8405 128 101 79
1013.3175 1021.9765 105.3325 112 93 76
1012.8245 1022.6875 106.2225 169 154 138
1013.1845 1022.4295 105.2765 140 117 94
1013.2975 1022.0925 105.6895 102 81 63
1012.0265 1022.5935 106.8285 131 110 91
1011.9315 1022.4865 106.8915 142 136 135
1012.0325 1023.1815 106.8375 214 208 188
1013.2985 1022.1935 105.8015 165 147 122
1013.4935 1021.5255 105.8845 132 106 79
1012.6265 1022.7035 106.2805 168 157 141
1011.9245 1022.6335 104.9775 155 138 119
1011.9225 1022.6285 104.8275 157 139 122
1013.4525 1022.0185 106.2295 149 121 92
1013.4565 1021.9205 106.2775 141 117 92
1013.0695 1022.5975 105.1855 148 144 136
1013.3905 1022.0755 105.9775 159 135 109
1012.9715 1022.6805 106.4175 148 132 115
1011.6395 1022.6485 105.8665 154 141 123
1013.3815 1022.1225 105.9795 147 126 104
1012.8165 1022.6795 106.9145 176 160 138
1012.2275 1022.6385 105.2255 160 145 128
1011.9735 1022.6765 106.4745 157 142 125
1012.4205 1022.5475 106.5615 58 41 31
1011.4595 1023.1765 106.8455 194 181 164
1012.9765 1022.6485 105.7115 106 91 80
1012.4785 1022.6775 106.0765 160 143 128
1013.4625 1021.6805 106.4725 115 89 66
1013.3705 1021.9725 105.3575 96 72 52
1013.2245 1022.6555 106.0305 54 48 45
1013.1505 1022.4575 105.0385 167 153 137
1013.4125 1021.7215 105.8735 158 134 107
1012.6715 1022.6825 106.4745 145 126 106
1013.4655 1021.7765 105.4385 145 153 152
1011.7135 1022.6075 106.8635 95 71 49
1013.1745 1022.6665 106.1745 133 115 98
1012.6355 1022.5975 105.1075 93 74 67
1012.2285 1022.5195 106.9295 159 151 143
1012.9235 1022.8845 106.8665 186 172 147
1012.0265 1022.6425 105.7745 149 131 113
1012.4545 1022.5975 104.7725 94 87 77
1012.6785 1022.6285 106.9225 205 189 170
1013.4535 1022.5045 106.4435 199 166 133
1012.0335 1022.6545 105.4355 147 131 118
1012.8795 1022.5965 104.8835 130 101 81
1012.2265 1022.6715 106.5265 153 133 112
1011.7695 1022.6395 105.6265 156 140 122
1011.9275 1022.6185 106.7275 147 128 108
1013.5205 1022.5945 106.8205 107 86 71
1013.2995 1022.7615 106.8955 191 176 153
1013.4975 1021.4325 105.8375 125 98 77
1012.9275 1022.6685 105.8295 151 132 112
1013.4145 1021.9775 106.6325 155 141 125
1013.1105 1022.6235 105.7265 158 137 115
1013.5155 1021.4265 105.8205 136 107 77
1013.1795 1023.2645 106.8035 191 177 156
1012.4105 1022.8405 106.8765 166 146 122
1012.1735 1022.6705 106.0275 152 137 122
1013.3125 1022.6585 106.4745 175 158 138
1013.4625 1021.8775 106.6575 154 146 133
1013.0445 1022.4475 104.8555 197 167 139
1012.8255 1022.6175 104.9765 149 132 115
1013.3625 1022.3685 106.0805 148 127 103
1013.0855 1022.5275 104.8735 123 94 67
1011.5055 1022.6495 106.0315 136 120 107
1012.1295 1022.6555 105.7735 138 125 110
1012.6215 1022.7005 106.3695 149 129 111
1012.4765 1022.6125 106.7215 140 121 101
1012.1245 1022.5795 106.8735 88 66 50
1012.0765 1022.6555 105.6265 162 143 122
1011.6685 1022.6695 106.9115 189 173 152
1012.6765 1022.6365 105.3755 155 137 118
1013.2485 1022.0445 105.3875 221 215 190
1012.8685 1022.6435 105.5705 140 125 110
1011.8055 1022.5645 105.6315 165 137 108
1012.6755 1022.6265 105.0285 148 131 114
1011.6745 1023.0415 106.8545 185 170 150
1013.3295 1022.1425 105.1425 113 91 71
1011.7715 1022.6795 106.4255 166 150 133
1012.2665 1022.7065 106.2875 177 159 136
1011.7245 1023.2615 106.8365 211 200 180
1012.0275 1022.6545 105.8295 161 145 127
1011.6755 1022.6715 105.9765 155 139 122
1011.7795 1022.6075 106.7755 141 122 102
1011.6255 1022.6405 105.4295 153 135 116
1013.3645 1021.9685 105.5315 122 109 95
1012.7215 1022.5155 106.9275 161 151 139
1013.3725 1022.0615 105.2695 101 78 59
1012.1765 1022.6725 106.5315 150 131 111
1011.8815 1022.6415 105.8715 115 86 65
1013.4475 1021.3805 106.1615 203 159 118
1013.1675 1022.6045 106.8345 148 129 110
1013.1435 1022.5415 105.3725 142 113 86
1011.4325 1022.7785 106.8915 187 172 148
1012.1255 1022.6555 105.6665 162 147 129
1013.0855 1022.5265 104.8285 129 100 73
1012.7595 1022.4975 106.8935 96 76 65
1013.2595 1022.4605 105.9335 128 114 99
1011.6775 1022.6425 105.5775 157 140 121
1013.1345 1022.5775 106.8735 87 65 47
1012.8745 1022.6605 105.7275 154 137 120
1013.4655 1022.3245 106.3285 158 135 110
1013.1785 1022.4715 105.4235 149 126 99
1013.3445 1021.9415 105.5655 185 159 131
1013.2245 1022.3745 105.7275 144 124 102
1011.8255 1023.0265 106.8535 181 166 145
1011.7715 1022.6375 105.2745 162 144 125
1011.8845 1022.7045 106.3275 165 143 116
1012.9275 1022.6655 106.5295 136 115 96
1013.3965 1022.0705 106.6255 169 157 142
1013.4185 1022.5945 106.8215 147 125 99
1013.4805 1022.6095 106.8625 95 74 56
1012.3265 1022.6285 104.8745 155 136 117
1011.6695 1022.6275 104.8795 159 141 123
1013.3985 1021.7425 105.8225 147 121 92
1013.2215 1022.3735 105.6285 153 130 103
1011.9325 1022.5955 106.7805 147 127 105
1013.2745 1022.1215 105.2205 145 122 97
1012.6795 1022.6245 104.9215 163 147 129
1013.2675 1022.6525 106.3685 179 162 142
1012.3335 1022.6225 106.5205 116 91 73
1013.1775 1022.4275 105.1225 146 123 99
1013.4635 1022.1245 106.3265 132 111 88
1013.1825 1022.6255 105.9705 148 128 106
1011.5325 1022.5255 106.5095 118 108 96
1013.4795 1022.5135 106.9295 160 156 149
1011.8725 1022.6385 105.3285 157 141 123
1011.9795 1022.6355 105.1245 160 142 124
1011.9795 1022.6405 105.4255 162 142 123
1012.1235 1022.6395 105.7285 151 133 116
1012.7295 1022.7025 106.1965 63 50 42
1011.9105 1022.6545 105.2695 168 159 142
1011.8795 1022.6085 106.7705 141 122 103
1013.3255 1022.0475 105.2435 89 68 52
1011.9115 1022.8375 106.8795 184 171 148
1013.4445 1021.6235 106.4185 141 128 115
1013.4985 1021.5235 105.8335 118 86 60
1011.7175 1023.1245 106.8475 194 184 164
1012.1755 1022.6415 105.3745 155 137 118
1012.1255 1022.5945 106.7855 140 120 97
1011.7725 1022.6385 105.5255 172 155 138
1012.5275 1022.5955 106.7825 126 109 93
1013.5015 1021.4815 105.9225 139 106 78
1012.5175 1022.7015 106.1955 175 151 123
1012.6665 1023.3055 106.8045 213 202 182
1012.1265 1022.6735 106.0225 165 151 134
1012.3935 1023.2025 106.8255 209 198 178
1012.1725 1022.6545 105.6775 171 157 140
1013.2655 1022.0735 105.4805 129 108 88
1013.1125 1022.5275 105.0295 149 125 101
1013.2245 1022.5945 106.6855 151 134 116
1013.3265 1022.4175 104.8275 105 81 60
1013.4655 1021.4755 106.3225 136 112 87
1013.2535 1022.2645 105.5985 163 149 128
1011.9755 1022.6685 105.9765 162 147 130
1013.0815 1022.6755 106.2785 152 135 116
1013.3755 1022.3755 106.1245 160 143 120
1013.0735 1022.6575 105.6225 142 124 105
1013.1315 1022.6685 106.1255 153 137 119
1013.1275 1022.6175 105.4775 148 128 105
1013.1175 1022.6045 105.1725 142 125 107
1011.5765 1022.5295 106.8885 83 64 48
1012.4265 1022.5265 106.8885 103 81 63
1013.0225 1022.6615 106.5745 145 123 101
1013.2565 1022.1735 105.5315 152 133 112
1012.4745 1022.6365 105.7275 161 142 124
1012.0695 1022.6525 105.7285 162 149 135
1013.4495 1021.9185 106.4325 110 82 58
1011.6185 1022.8375 106.8815 191 176 153
1013.2445 1022.1465 105.2765 196 162 130
1013.4315 1022.2115 105.0645 127 104 80
1012.3215 1022.6605 105.9715 169 153 136
1013.2215 1022.2765 105.1215 136 111 87
1013.4295 1022.4295 106.3285 155 133 108
1013.0745 1022.6215 106.6765 144 124 104
1011.4425 1023.1355 106.8485 200 190 172
1013.0795 1022.5795 106.8725 95 73 55
1012.3255 1022.6905 106.3235 159 141 122
1012.8765 1022.5815 106.8745 91 69 52
1011.9735 1022.5925 106.8225 131 112 94
1012.7255 1022.6535 105.5285 160 141 119
1012.9735 1022.5945 104.7735 143 124 104
1013.4585 1021.6225 106.2725 139 114 90
1012.5745 1022.6235 104.7755 158 142 125
1013.4565 1021.9305 106.2175 151 118 85
1013.3215 1022.5285 106.1245 158 141 122
1013.3775 1021.5235 106.5735 148 130 112
1013.4615 1021.6255 106.4775 116 89 65
1012.7235 1022.7055 106.3735 136 114 96
1011.6745 1022.6425 106.6275 148 129 109
1012.7255 1022.6685 106.5255 151 132 113
1012.9735 1022.5935 104.8215 140 122 103
1013.3735 1022.6275 106.4285 148 129 109
1013.2205 1022.6135 106.6785 147 131 111
1013.4985 1022.2915 106.7025 55 45 36
1013.4205 1021.9715 106.0265 158 134 107
1013.1865 1022.3445 105.1935 137 110 80
1013.1275 1022.3665 104.9225 153 131 107
1012.8705 1022.6165 104.9215 141 122 102
1012.5755 1022.6925 106.3235 168 150 130
1012.4035 1022.7015 106.1415 166 154 144
1011.5735 1022.4855 106.8925 153 150 149
1013.3645 1022.1075 105.8915 133 116 98
1013.2285 1022.5895 106.7855 117 99 81
1012.1245 1022.6425 105.4295 158 142 124
1011.7755 1022.6285 104.7745 168 152 136
1013.3605 1022.0935 105.1895 76 57 43
1012.2765 1022.6345 106.6735 149 129 109
1013.4665 1022.5725 106.6225 90 62 41
1011.8245 1022.6365 105.3275 166 148 129
1011.5235 1022.6435 105.7175 158 138 117
1013.4295 1021.4315 106.6145 174 167 156
1012.4205 1022.4895 106.9175 177 174 171
1011.6705 1022.9255 106.8665 194 180 157
1013.4355 1021.3815 106.6155 182 174 160
1013.0265 1022.5915 104.9285 151 134 116
1012.4285 1022.5955 106.8245 151 130 108
1012.1185 1022.6385 105.7715 152 134 117
1011.9805 1022.6525 105.3895 166 150 127
1011.9725 1022.6375 105.2245 161 142 122
1012.0255 1022.6395 105.2785 150 132 114
1012.3265 1022.6065 106.7725 150 133 115
1012.3605 1022.8285 106.8805 172 157 136
1013.3785 1022.0815 105.2315 116 89 66
1012.6955 1022.6515 105.4895 53 43 36
1013.4415 1021.4225 106.4785 127 100 76
1011.6725 1022.6535 105.6165 167 155 143
1012.3725 1022.6325 104.9755 168 152 134
1012.0765 1022.6315 105.0755 159 143 124
1012.2225 1022.6305 104.9255 155 137 120
1012.8215 1022.5105 106.9545 200 204 208
1013.4095 1022.2715 106.1365 153 128 102
1013.4425 1021.9265 106.2255 145 123 100
1013.4745 1022.4195 106.5255 126 99 72
1012.6515 1022.9985 106.8485 193 178 155
1013.5195 1022.0735 106.6765 157 143 124
1013.4285 1021.5795 106.5555 85 63 47
1013.4345 1021.3745 106.5285 83 59 40
1011.5755 1022.6695 106.5255 161 144 127
1013.2735 1022.0215 105.3755 151 124 96
1012.9115 1022.5655 106.6125 118 98 80
1012.7725 1022.6595 106.5735 143 124 105
1012.4645 1022.6535 105.5275 177 157 128
1013.2155 1022.2255 105.2755 139 114 89
1013.4605 1021.9265 106.1335 160 140 116
1012.5825 1022.7045 106.2845 161 149 135
1013.4495 1021.7945 106.6575 235 219 193
1012.4205 1022.6535 105.8175 155 141 127
1013.2205 1022.6575 106.2205 129 111 92
1013.3735 1022.3735 104.8615 112 82 56
1012.3255 1022.6335 106.6785 162 142 120
1012.3195 1022.6035 106.8245 158 140 117
1013.0695 1022.6515 105.5915 173 160 143
1013.5275 1022.3125 104.9175 128 100 73
1011.9225 1022.5315 106.8885 97 76 59
1013.4425 1021.7255 106.1765 150 123 95
1011.7165 1022.4855 106.8925 140 126 117
1011.6195 1022.6015 106.5375 172 163 146
1013.4215 1021.7295 105.6755 151 123 93
1011.5775 1022.6375 105.3275 168 156 140
1013.1105 1022.6565 105.8815 162 141 116
1013.4005 1022.0655 105.9915 64 49 41
1013.0755 1022.6655 106.4755 155 139 121
1012.2825 1022.5795 106.9325 188 170 148
1013.2655 1022.8285 106.8755 185 168 146
1012.2885 1022.6535 105.6275 161 148 131
1013.4435 1021.6325 105.6235 170 145 115
1013.2645 1022.1205 105.2725 143 121 99
1013.1055 1022.6565 105.6795 118 108 105
1013.1545 1022.5745 105.4665 153 130 103
1013.3235 1022.5725 106.1775 152 131 107
1013.4265 1022.1685 105.1245 125 99 74
1012.3645 1022.7055 106.3025 123 100 78
1013.1595 1022.5225 105.3255 161 138 111
1012.0285 1022.6195 106.4975 82 58 46
1013.4455 1021.6765 106.2715 142 118 91
1011.8235 1022.6325 104.9235 153 134 115
1011.4765 1022.6715 106.4225 163 148 131
1012.2765 1022.6925 106.2755 158 143 127
1012.7755 1022.6155 106.8625 118 97 76
1012.3925 1022.6525 105.4345 160 147 131
1012.3735 1022.6155 106.7305 134 115 95
1011.9305 1022.6445 105.8285 147 130 114
1012.5755 1022.6265 105.0705 158 140 121
1013.1435 1022.4785 105.0725 169 149 123
1013.4215 1021.8735 106.6285 131 109 88
1013.5295 1022.2095 105.0655 128 102 78
1013.4865 1021.3775 106.0755 149 123 95
1013.5295 1021.3735 105.7695 136 107 80
1011.8745 1022.6385 105.2265 170 153 132
1012.7825 1022.5975 106.7465 137 103 76
1013.3825 1023.1255 106.8165 189 175 156
1012.9415 1022.8465 106.8745 165 144 123
1012.8075 1022.7005 106.2665 175 163 149
1012.6105 1022.5715 106.5445 86 73 63
1012.3195 1022.6535 105.8845 182 167 150
1012.3205 1022.6385 105.8285 160 143 124
1013.4675 1021.4775 106.2745 140 114 88
1012.5275 1022.6585 106.9135 197 182 159
1012.8905 1022.5965 104.8305 110 98 84
1012.7295 1022.9715 106.8565 166 148 126
1012.2275 1022.4905 106.9185 177 168 159
1013.3765 1022.1275 105.1785 116 88 64
1012.0575 1022.6555 105.8165 174 161 144
1012.2745 1022.6375 105.2215 141 124 107
1012.6765 1022.6795 106.0785 153 136 118
1013.0265 1022.6715 105.9305 140 120 100
1013.3615 1022.2285 105.9785 154 135 111
1013.3975 1021.9395 105.3435 141 121 94
1013.1525 1022.9705 106.8495 169 153 130
1012.2725 1022.6855 106.1735 169 152 136
1012.9215 1022.6105 104.9235 155 137 118
1012.9265 1023.3225 106.7895 196 182 157
1012.9775 1022.6585 105.6275 146 127 106
1013.4455 1021.6665 106.5185 88 64 45
1013.4595 1021.6195 106.5215 101 77 55
1012.6685 1022.6045 106.7725 162 145 125
1012.2285 1022.6325 105.1775 172 155 136
1013.1285 1022.5205 106.8895 96 76 59
1011.8285 1022.6535 105.6855 160 142 122
1012.2765 1022.6875 106.2295 161 144 125
1011.9735 1022.5215 106.9335 181 174 162
1013.4785 1022.3725 104.8215 130 101 75
1012.4205 1022.4925 106.8955 127 112 97
1013.0655 1023.2755 106.7965 191 179 156
1013.4445 1021.4715 106.4835 93 70 52
1011.8235 1022.6745 106.5285 158 140 119
1012.4265 1022.6905 106.3775 145 128 110
1012.9295 1022.6215 105.1285 146 129 112
1012.8265 1022.6765 106.0245 162 145 128
1011.9235 1022.6545 105.7805 167 152 133
1013.5165 1022.4975 106.9135 177 168 157
1012.6705 1022.5925 105.0495 77 64 54
1011.9755 1022.6515 105.1525 156 141 127
1011.5245 1022.6725 106.0755 150 134 117
1013.1335 1022.6395 106.0825 50 40 38
1013.0815 1022.6215 106.9235 161 146 124
1013.4345 1022.0785 106.1255 138 116 92
1013.2065 1022.3795 105.3775 157 138 114
1011.5815 1022.6535 105.3995 175 167 154
1011.7775 1023.2755 106.8365 203 190 170
1011.7755 1022.6745 106.4715 157 139 121
1011.7585 1022.6465 105.8765 153 137 116
1013.3855 1021.8245 105.8225 149 124 99
1013.3235 1023.0725 106.8245 184 173 155
1011.8775 1022.6745 106.0715 147 130 113
1013.1245 1022.6155 105.4285 141 123 102
1013.4475 1021.5675 106.1285 159 135 106
1012.5285 1022.6075 106.7705 149 131 113
1013.4575 1021.8715 106.3215 151 125 97
1011.6905 1022.7725 106.8905 160 144 119
1013.3935 1021.7805 105.7825 137 114 90
1012.0775 1022.5655 106.9345 161 141 119
1011.5515 1023.2665 106.8415 211 200 180
1013.4665 1021.6075 105.7725 121 103 87
1012.5255 1022.6385 105.6745 155 136 117
1011.8265 1022.6085 106.8265 134 117 100
1013.5265 1021.4735 105.7735 130 105 80
1012.3285 1022.6325 105.0755 154 136 116
1013.3755 1022.7775 106.8915 189 172 149
1012.6775 1022.6915 106.3765 151 132 113
1012.6225 1022.6875 106.1745 160 142 125
1012.3755 1022.6385 105.3255 165 148 130
1011.7045 1023.0895 106.8495 175 160 139
1011.6725 1022.6435 105.6765 151 135 119
1013.1805 1022.4715 105.7285 154 131 105
1013.3195 1022.0745 105.7295 156 131 105
1011.6755 1022.6285 104.9245 161 141 120
1012.1315 1022.7025 106.3265 84 69 62
1011.4165 1022.6885 106.9095 157 139 116
1012.5745 1022.6335 106.6245 136 117 97
1012.1205 1022.4905 106.8945 127 116 109
1011.9315 1022.6535 105.8195 168 150 132
1013.2885 1022.3795 105.9255 136 118 96
1011.7295 1022.6405 105.6755 172 152 130
1012.1275 1022.6875 106.2755 170 155 139
1012.8195 1022.6125 106.9325 165 150 130
1012.5675 1022.4935 106.8945 204 203 207
1013.4475 1021.8205 106.3685 151 129 107
1013.2295 1022.3805 105.7725 144 124 101
1013.3065 1022.0555 105.5435 190 156 116
1012.4735 1022.6615 106.5755 146 127 106
1013.1025 1022.6535 105.6295 200 180 163
1013.4775 1021.8625 105.4105 118 89 64
1012.7225 1022.6295 106.9225 158 145 126
1012.2245 1022.6265 104.8255 162 146 128
1013.2745 1022.1725 105.1225 140 118 97
1011.9265 1022.6635 106.9085 190 175 152
1012.6755 1022.6545 105.6355 164 146 124
1011.6325 1022.5205 106.4875 127 104 87
1013.2175 1022.6565 106.1785 147 129 111
1013.4545 1022.1125 106.2355 165 137 106
1011.8245 1022.6415 106.6335 130 107 86
1012.2245 1022.8365 106.8775 185 170 149
1011.7845 1022.6475 106.5815 212 194 172
1012.7245 1022.6255 105.0225 158 139 120
1013.3635 1021.9205 105.4705 151 126 100
1012.3275 1022.6375 105.5285 153 135 115
1013.1125 1022.6045 105.1345 132 116 100
1013.3615 1022.3105 105.9895 113 102 89
1011.4765 1022.6675 106.4775 150 133 116
1012.9285 1022.6825 106.4205 163 145 125
1012.7735 1022.5305 106.8925 105 82 63
1013.3745 1022.3255 106.0745 149 132 112
1011.8705 1022.6725 106.0265 156 141 125
1011.7765 1022.9375 106.8635 166 153 138
1013.4575 1021.6725 106.1235 152 129 102
1013.4855 1021.4725 105.9745 115 89 65
1012.3235 1022.5935 106.7805 147 127 107
1012.0955 1022.7115 106.9025 197 185 163
1013.3425 1021.9775 105.7255 134 113 90
1012.5815 1022.7195 106.9015 190 175 152
1012.1915 1022.9975 106.8495 196 183 164
1012.4645 1023.1255 106.8345 170 160 148
1013.1925 1022.4345 105.6225 142 118 96
1012.3475 1022.6535 105.2145 79 68 59
1013.0735 1022.6115 105.0285 170 149 122
1013.3855 1022.2805 106.0715 151 128 103
1013.2105 1022.3605 105.2065 110 89 72
1012.0815 1022.6015 106.8765 93 70 54
1013.4165 1022.4715 106.3265 154 132 106
1011.6885 1022.6385 106.4895 94 72 53
1012.1735 1022.6435 105.8205 165 150 132
1013.3225 1022.0295 105.2775 116 93 73
1012.1945 1022.6495 106.5535 87 74 65
1012.2735 1022.6345 105.1755 160 144 125
1012.4725 1022.6275 106.6765 142 121 101
1012.8265 1022.4905 106.9215 130 121 115
1011.7735 1022.6315 104.9255 161 143 123
1012.0755 1022.6525 105.3395 217 209 201
1012.7265 1022.6555 105.6735 159 141 121
1013.4585 1022.2715 106.2855 147 126 101
1011.6235 1022.6575 105.8265 164 150 134
1012.3825 1022.7355 106.8995 168 151 131
1011.6235 1022.6775 106.3255 162 147 129
1011.7755 1022.5805 106.8705 88 67 50
1011.5755 1022.6695 106.0245 161 146 129
1013.4805 1021.4225 106.0785 138 113 87
1011.8245 1022.6655 106.5755 152 134 115
1011.7315 1022.6615 105.9195 177 162 145
1013.4765 1022.1765 106.4805 131 105 81
1012.9825 1022.5965 104.9125 172 155 133
1013.3575 1022.1515 105.8935 174 157 141
1012.3225 1022.6195 106.7265 142 123 103
1013.1975 1022.3145 105.2245 111 85 64
1012.2735 1022.6395 105.7795 150 132 115
1011.8335 1022.9235 106.8635 201 188 164
1012.1795 1022.5115 106.9275 169 151 132
1012.6745 1022.6255 105.1265 149 132 112
1011.9775 1022.5525 106.5035 177 161 140
1012.9745 1022.6575 105.5775 150 128 105
1012.0625 1022.8355 106.8785 180 163 142
1012.5795 1022.5805 106.8765 93 71 53
1013.3085 1022.5635 106.1315 178 160 134
1012.4705 1022.7025 106.2255 174 162 150
1013.1995 1022.2895 105.0605 178 150 116
1012.0625 1022.6515 105.3725 179 163 141
1011.7245 1022.6125 106.7255 139 119 98
1013.4615 1021.8735 106.3735 144 118 92
1011.4815 1022.6735 106.9145 184 169 145
1013.3935 1022.2805 106.1155 157 134 107
1013.1425 1022.5405 105.4825 118 100 90
1012.9675 1022.6055 104.7745 139 119 98
1011.6265 1022.6295 104.9745 158 142 125
1012.4745 1022.6405 105.4285 149 131 113
1013.0835 1022.5235 104.7785 134 106 79
1012.4745 1022.6705 106.5245 154 135 115
1013.3595 1022.2145 105.9445 140 115 96
1012.0775 1022.6205 106.7235 146 127 109
1012.9435 1022.7165 106.3345 109 92 84
1012.0765 1022.7295 106.8985 158 140 118
1013.0775 1022.4745 104.8265 137 108 80
1013.4195 1021.8235 106.5765 104 78 57
1013.3055 1022.6155 106.1785 136 114 92
1011.7285 1022.6365 105.4775 166 148 127
1013.2425 1022.3965 105.8575 171 154 122
1013.0195 1022.6235 105.2795 132 114 97
1013.1625 1023.0795 106.8235 179 164 144
1012.2855 1022.5995 106.7495 157 124 96
1012.0695 1022.5985 105.0795 60 45 37
1012.3705 1022.5985 106.7295 141 123 107
1012.2735 1022.6545 105.7545 180 167 151
1012.0285 1022.7025 106.9035 168 150 130
1013.3965 1021.8845 105.3835 149 160 160
1011.8755 1022.6725 106.5245 162 145 128
1013.4435 1022.1215 106.1745 150 125 99
1013.0755 1022.7665 106.8935 169 152 134
1013.4555 1022.2225 106.2745 143 119 94
1012.7755 1022.6795 106.0755 154 138 121
1012.8185 1022.5215 106.9315 178 169 157
1012.5795 1022.6755 106.0785 152 136 120
1012.9705 1022.6765 106.0775 146 129 111
1013.3345 1021.9775 105.5755 151 129 104
1012.8775 1022.6075 106.7705 154 136 115
1012.8205 1022.6055 106.8585 117 96 72
1013.3985 1022.4265 106.2545 90 80 67
1013.5295 1023.2795 106.8065 206 194 174
1013.3785 1021.8785 105.5285 148 125 100
1012.0615 1022.6465 106.5465 176 158 138
1013.2885 1022.0835 105.2295 145 124 100
1012.5765 1022.6395 105.6215 152 134 114
1012.3135 1022.5945 106.7405 99 64 42
1011.8215 1022.7015 106.2925 140 112 88
1013.2395 1022.3315 105.6765 154 136 114
1013.3835 1022.2605 105.0045 142 126 107
1013.1085 1022.5295 104.9805 163 142 119
1011.5765 1022.6345 105.2755 168 151 133
1013.5205 1022.1895 106.6835 219 202 184
1011.9255 1022.6835 106.3785 153 136 119
1013.3395 1022.3875 106.0605 163 137 110
1013.4575 1021.4345 106.5205 76 53 36
1013.0795 1022.6695 106.0265 151 135 115
1013.1755 1022.7765 106.8895 182 166 143
1011.5365 1022.6025 106.4785 137 110 81
1012.0755 1022.6325 106.6755 150 131 112
1012.2265 1022.7275 106.9025 165 152 133
1012.2125 1022.6545 105.6715 176 161 145
1013.1365 1022.5765 105.6745 150 127 100
1013.1245 1022.3925 104.7875 123 97 73
1012.1285 1022.6495 106.5055 84 56 35
1011.7175 1023.0175 106.8565 191 182 165
1012.4725 1022.7015 106.4505 170 154 138
1013.4415 1021.8745 106.1255 125 104 83
1013.3905 1021.9725 105.9245 144 124 102
1012.7775 1022.6265 105.0765 143 125 107
1012.4305 1022.7515 106.8955 180 164 141
1011.8785 1022.6855 106.2785 164 148 130
1013.4205 1022.1275 106.6235 137 118 101
1013.3305 1022.2955 104.9455 127 99 72
1011.8285 1022.6425 105.6745 153 137 121
1013.3605 1023.2885 106.8035 196 183 164
1011.6235 1022.6605 106.5735 139 121 103
1012.5225 1022.6445 105.8235 156 140 123
1013.4905 1022.2655 106.6925 118 112 104
1013.2435 1022.1815 105.5665 136 114 89
1011.8255 1022.6515 105.5795 176 160 140
1013.5085 1022.5165 106.7145 98 70 50
1013.1715 1022.4265 104.7765 123 99 77
1013.4435 1021.5375 106.3345 136 105 76
1012.5785 1022.5185 106.9285 161 148 132
1013.0225 1022.5305 106.8905 99 75 56
1012.6235 1022.6745 106.0265 159 142 125
1013.3965 1021.7395 105.7605 145 118 89
1013.3445 1021.9405 105.5345 143 123 102
1011.7285 1022.6815 106.1745 160 143 125
1012.7255 1022.6285 105.1275 152 134 117
1013.3995 1022.8135 106.8795 198 184 160
1012.7295 1022.6395 105.5215 146 129 114
1012.9735 1022.6345 105.3795 155 138 118
1013.2115 1022.2245 105.3305 145 122 97
1011.9235 1022.6615 105.9235 168 153 136
1012.1295 1022.6385 105.4755 153 135 118
1013.4265 1021.5245 106.5555 75 54 38
1012.4725 1022.6395 105.4745 154 136 116
1013.3965 1022.3915 106.2155 185 164 137
1013.4235 1022.2245 106.1735 141 120 98
1013.0245 1022.6585 105.5885 139 118 98
1013.2565 1022.3215 105.6285 163 142 116
1013.5065 1021.4805 105.8675 168 127 89
1013.4195 1021.7735 105.5735 150 126 101
1012.6245 1022.6605 105.8725 149 132 115
1012.6785 1022.6415 105.5715 154 136 117
1012.5665 1022.8715 106.8725 174 158 133
1011.7765 1022.6355 105.1295 159 141 123
1013.2055 1022.4195 105.4915 120 103 86
1011.4265 1022.6105 106.7745 122 102 82
1012.6235 1022.6815 106.1265 150 135 119
1011.8515 1022.6425 106.5535 88 75 65
1013.5235 1022.8075 106.8865 155 147 136
1012.1715 1022.6455 105.9205 153 135 116
1012.3925 1022.6505 106.0695 149 126 103
1013.2955 1022.0365 105.5205 175 147 117
1012.0235 1022.5915 106.7855 122 105 87
1012.2745 1022.6425 105.8745 161 143 125
1012.4715 1022.5395 106.5445 77 60 49
1013.4425 1021.8215 106.6525 191 185 173
1012.7785 1022.6795 106.4745 143 126 108
1013.3475 1021.8975 105.7495 194 164 140
1013.4685 1021.3735 106.3275 127 102 77
1013.4615 1021.6255 106.3775 141 116 90
1013.4335 1021.6235 105.7265 148 123 97
1011.6625 1022.5705 106.9325 179 164 142
1012.6795 1022.6645 105.9245 146 132 116
1013.4525 1022.0785 106.1615 202 162 124
1013.4365 1022.1315 106.5905 112 87 66
1013.5235 1022.2455 104.9925 139 111 83
1011.6735 1022.6435 105.7735 164 145 126
1011.5785 1022.6435 105.7295 183 169 152
1013.2065 1022.3725 105.0315 134 110 86
1011.5815 1022.6785 106.1805 163 149 131
1013.4695 1021.3795 106.2265 134 109 84
1012.6235 1022.6245 105.0735 146 126 106
1011.5275 1022.6425 106.6275 139 118 97
1012.5745 1022.6775 106.4765 151 133 113
1013.2305 1022.5805 106.8735 86 65 46
1013.3585 1021.9235 105.7275 165 140 114
1011.5855 1022.6165 106.9225 172 156 133
1013.4555 1021.7835 106.1775 142 112 83
1013.4345 1022.4775 106.3755 160 138 114
1012.0805 1022.6445 105.9205 160 145 127
1013.4085 1021.8385 105.8725 161 138 112
1013.4825 1022.6065 106.8255 133 111 87
1013.0755 1022.5285 106.8915 97 74 54
1013.3435 1021.5335 106.5095 61 42 28
1013.3295 1023.2765 106.8035 176 160 143
1012.4765 1022.6085 106.7745 139 121 103
1013.4455 1021.8275 106.1845 150 125 100
1013.4245 1022.4775 106.6355 134 108 83
1012.3235 1022.6405 105.5765 159 140 121
1012.5895 1022.5915 106.7485 88 62 44
1013.4545 1021.9815 106.2805 128 109 90
1013.4745 1022.0875 105.2305 106 80 57
1013.3855 1021.9225 105.8785 147 124 100
1012.5245 1022.6905 106.2765 159 144 127
1011.5235 1022.6715 106.3725 156 139 120
1013.1725 1022.6635 106.0765 138 119 98
1013.3925 1021.8375 105.4755 135 110 84
1012.8675 1022.6405 105.4725 143 127 110
1011.7765 1022.4865 106.9135 153 152 153
1011.8745 1022.6835 106.1765 159 142 125
1012.3635 1022.6525 105.4865 161 147 132
1011.5055 1022.6485 106.2525 112 89 72
1012.4795 1022.6255 104.8235 158 141 123
1013.5035 1021.5655 105.9825 163 127 88
1013.4465 1021.9715 106.2675 149 117 88
1012.6795 1022.6435 105.7275 148 132 115
1013.4455 1021.7745 106.2265 153 124 96
1013.4735 1021.8835 105.3905 112 84 60
1011.6745 1022.5745 106.8705 81 60 44
1013.4625 1022.2785 106.3265 128 108 86
1012.4685 1022.6065 106.8275 140 122 102
1013.3825 1021.7745 106.5855 147 124 101
1013.1635 1022.4935 106.8975 166 151 136
1013.1055 1022.7265 106.9005 194 180 154
1011.4245 1022.5765 106.8725 82 61 44
1012.9735 1022.6085 104.9315 146 130 111
1013.4485 1022.4915 106.4755 111 88 65
1013.0335 1023.2835 106.7955 167 150 129
1013.4355 1022.4905 106.8935 198 226 255
1013.2915 1022.5335 106.0705 164 141 115
1012.8285 1022.6415 105.5235 157 142 125
1012.1775 1022.6155 106.7745 136 118 100
1013.0355 1022.5955 105.2195 128 112 100
1012.9265 1022.6355 105.3745 148 129 107
1013.1875 1022.4245 105.3755 140 116 91
1011.6225 1022.6745 106.4225 160 144 127
1012.1285 1022.5345 106.5245 68 50 42
1013.0755 1022.5755 104.7765 137 114 92
1012.3155 1022.6525 105.3385 160 143 126
1013.1265 1022.7465 106.8965 184 168 146
1013.4755 1021.4765 106.0775 147 120 92
1012.2805 1022.6555 106.6245 151 133 114
1012.6325 1022.6535 105.6225 164 149 132
1012.1825 1022.6555 105.8835 149 135 120
1012.4275 1022.5675 106.9325 201 188 167
1013.1925 1022.3225 105.4235 146 120 94
1013.0345 1022.3795 104.8365 182 154 122
1013.2565 1022.6095 106.0905 134 117 99
1013.2725 1022.4265 105.9295 158 139 116
1013.3125 1022.3215 105.9275 159 141 119
1013.3735 1022.1495 105.1435 128 102 79
1012.9735 1022.5965 104.8785 150 130 109
1011.7245 1022.6345 106.5795 139 126 112
1013.4425 1021.5285 106.5295 91 65 46
1012.6255 1022.6325 106.6255 148 129 110
1011.5805 1022.5825 106.5295 169 160 143
1012.2685 1022.6545 105.2365 172 149 118
1011.7175 1022.7835 106.8895 178 166 145
1012.7765 1022.6185 104.8245 151 135 119
1012.1805 1022.6905 106.2765 167 153 138
1013.1685 1022.6545 106.5235 162 143 119
1013.4625 1022.1765 106.3215 140 117 93
1013.2825 1022.0785 105.2745 149 125 99
1012.6715 1023.0265 106.8435 171 154 131
1012.1165 1022.5805 106.9315 174 160 140
1012.7805 1022.6865 106.4225 160 141 122
1013.2905 1022.1725 105.7235 150 130 105
1012.2755 1022.4915 106.9195 153 151 146
1011.7245 1022.6795 106.4725 156 141 124
1013.2845 1022.1785 105.6795 157 136 113
1011.7765 1022.6355 105.3275 164 148 130
1013.4535 1021.8285 106.1245 158 135 110
1012.0245 1022.6795 106.1745 163 146 128
1012.5235 1022.6375 105.5745 166 150 132
1011.6735 1022.6415 105.6315 167 149 129
1011.7195 1022.6515 105.6195 158 139 117
1012.7225 1022.6195 104.9765 147 130 112
1011.8235 1022.6315 106.6755 148 128 109
1012.2055 1022.6535 105.5775 162 140 123
1012.7855 1022.5725 106.5845 134 119 104
1012.5205 1022.6555 106.6065 145 132 118
1013.3165 1022.2295 105.8735 149 129 105
1012.1255 1022.6795 106.4775 151 134 116
1013.4245 1022.0705 106.5955 112 86 64
1013.3575 1021.9615 105.6235 151 130 105
1013.4165 1022.8855 106.8625 168 150 128
1012.6235 1022.6895 106.2265 162 146 130
1013.4465 1021.6165 106.1295 135 110 83
1013.4445 1021.5955 105.8895 94 74 60
1012.6755 1022.6855 106.1255 175 159 142
1011.5805 1022.5925 106.8355 120 98 77
1011.8285 1022.6385 105.2795 147 129 111
1013.1955 1022.2335 105.3715 139 113 87
1013.4305 1021.3855 106.4365 117 93 68
1011.6765 1022.6825 106.2265 158 143 126
1012.4765 1022.4925 106.9195 128 118 107
1011.9765 1022.6845 106.4275 160 145 128
1012.5795 1022.6635 105.9245 156 142 128
1013.4525 1022.3195 106.2865 166 146 120
1011.8215 1022.7675 106.8945 175 159 136
1012.8315 1022.6435 106.5405 83 65 55
1012.6765 1022.6555 105.6675 141 127 114
1013.1945 1022.3265 105.2755 135 109 85
1012.3695 1022.6025 106.8605 72 58 47
1013.4775 1022.2285 105.0265 140 114 87
1012.9785 1022.6065 106.7745 148 131 114
1013.4205 1022.3225 106.6305 134 112 92
1013.3705 1022.5805 106.8715 102 78 58
1013.5285 1022.4975 106.8955 82 58 38
1013.1845 1022.6485 106.0915 193 169 135
1011.9765 1022.6805 106.1255 160 143 124
1012.2265 1022.6065 106.8245 124 106 88
1013.4445 1021.5925 105.9255 132 107 82
1013.2475 1022.2455 105.0475 161 131 102
1012.1765 1022.6405 105.4225 153 134 115
1013.2285 1022.1775 105.3715 160 137 112
1013.2175 1022.4035 105.2375 164 125 91
1013.4465 1021.7755 106.3785 115 92 71
1013.0155 1022.5125 106.9195 128 115 98
1011.4745 1022.6695 106.3735 157 141 124
1013.4595 1021.3655 106.5245 73 51 35
1013.2055 1022.2725 105.4295 158 136 109
1013.4645 1022.3205 106.3735 145 120 94
1013.0285 1022.6755 106.4275 159 139 115
1013.1185 1022.6595 106.4705 146 127 106
1012.3745 1022.6365 105.6245 146 127 108
1013.5055 1021.5655 105.9015 116 83 57
1012.6735 1022.6415 105.6215 144 130 115
1012.3775 1022.5215 106.9405 193 186 177
1011.9725 1022.6155 106.7245 136 118 100
1011.6275 1022.6295 105.0735 160 141 122
1012.4245 1022.6435 105.8295 165 151 133
1012.5255 1022.6405 105.4765 147 130 113
1013.2515 1022.2025 105.1245 122 106 92
1013.4435 1021.6215 106.5375 81 56 39
1013.2815 1022.3275 105.8735 160 140 117
1012.7675 1022.6725 106.9165 160 148 128
1012.9255 1022.6605 106.5685 161 140 116
1013.2475 1022.1985 105.0875 159 130 99
1012.5335 1022.9285 106.8605 157 140 116
1013.1745 1022.5305 106.8865 101 80 63
1013.2445 1022.4995 105.9555 147 127 102
1011.8365 1022.6455 106.5815 123 101 83
1012.7765 1022.5805 106.8795 83 64 47
1013.1705 1022.4755 105.2245 146 122 97
1012.2285 1022.6225 106.7305 145 126 107
1011.6775 1022.5925 106.7325 91 71 57
1013.4625 1022.5785 106.5785 113 87 63
1012.5735 1022.6435 105.7305 152 134 113
1013.4485 1022.2285 106.3285 149 118 89
1011.9675 1022.8765 106.8725 192 178 157
1013.1625 1022.5245 105.4245 138 115 90
1012.1715 1022.6425 105.9605 150 141 131
1012.4645 1022.6285 106.9225 205 190 170
1011.8735 1022.6825 106.3835 152 135 119
1013.0705 1022.4245 104.8285 129 99 71
1013.0725 1022.6145 106.7215 145 127 106
1013.5195 1022.9725 106.8525 181 165 141
1011.7705 1022.6575 105.8255 153 140 126
1013.4635 1021.5735 106.3725 134 108 83
1012.4765 1022.6355 105.7735 144 126 107
1013.2105 1022.2695 105.2245 138 111 84
1013.4105 1022.5155 106.3295 142 124 103
1012.5265 1022.6605 105.9275 153 137 121
1013.4105 1021.9785 105.9435 168 149 124
1012.5275 1022.6345 105.2235 149 132 114
1013.2445 1022.3275 105.7195 153 131 106
1013.3955 1021.9795 105.9605 156 127 96
1012.3245 1022.6435 105.9185 148 131 115
1012.1285 1022.6545 105.6185 162 148 134
1012.5285 1022.5285 106.8945 83 62 47
1013.1965 1022.3815 105.4765 137 116 93
1013.1705 1022.6065 106.7785 147 131 113
1012.9875 1023.1295 106.8175 204 190 168
1011.6185 1022.5965 106.7365 107 91 80
1013.1745 1022.6155 106.6775 136 118 98
1013.0755 1022.6645 105.8195 148 130 110
1013.1565 1022.5585 105.2705 146 119 90
1012.4755 1022.6905 106.3225 152 136 119
1012.8285 1022.6765 105.9745 162 143 123
1013.3595 1022.0725 105.8855 168 153 132
1013.0175 1023.1735 106.8095 198 186 164
1013.2665 1022.2765 105.7255 150 130 107
1011.5785 1022.6385 105.4285 166 151 132
1011.8735 1022.6805 106.4255 162 146 128
1012.6035 1023.3295 106.8095 205 190 169
1012.9755 1022.6145 105.0755 149 132 111
1013.1395 1022.5755 105.3275 157 135 110
1013.4625 1021.5755 106.3235 136 111 86
