1013.7815 1008.5045 101.7895 168 143 116
1014.3255 1008.9255 100.4555 98 88 82
1014.2525 1009.1245 100.7155 88 68 53
1013.6725 1008.3955 100.9205 69 55 43
1014.1745 1008.6225 100.4485 135 122 113
1014.0895 1009.3185 102.0785 121 97 74
1013.7185 1009.8555 100.7795 117 94 74
1013.8385 1008.5595 101.6325 150 116 83
1014.1145 1008.9315 101.8245 123 98 73
1014.0125 1008.6555 100.8825 193 166 130
1014.0635 1009.5715 101.1745 111 84 62
1013.5695 1008.3865 101.0215 83 68 54
1014.1265 1009.2225 101.8755 124 97 73
1013.7345 1009.7405 102.3755 129 99 73
1014.0875 1008.9275 102.1805 150 122 94
1013.9985 1009.5475 101.9755 119 93 69
1013.7165 1008.4425 101.2685 99 78 58
1014.0245 1007.8775 100.4325 139 133 127
1013.9855 1009.5215 102.2775 106 79 57
1014.1395 1008.9215 101.4755 111 89 70
1013.8585 1009.8025 100.6995 106 84 63
1014.0585 1009.5105 101.6325 108 81 60
1013.9435 1009.5985 101.9745 119 91 69
1013.8715 1008.5375 101.4235 147 120 90
1013.9665 1009.7145 100.6755 104 79 59
1014.0785 1008.8265 101.8255 122 97 77
1013.6275 1008.4055 100.9275 120 96 72
1014.1455 1009.3895 101.1795 92 66 46
1014.0025 1008.7395 102.3795 155 127 90
1013.8745 1009.7255 101.3755 118 90 67
1014.0595 1008.6855 101.1205 147 124 100
1013.9905 1009.6355 101.2755 117 89 66
1013.7745 1008.4935 101.0205 71 58 47
1014.1565 1008.7425 100.6675 112 95 79
1013.9255 1009.8725 100.4615 110 96 84
1014.0525 1009.5545 101.4665 110 83 60
1013.6755 1008.4615 101.7735 135 111 86
1013.5775 1008.4065 100.5745 129 107 82
1013.5845 1009.7965 101.8515 162 128 93
1013.7775 1008.4485 101.2415 52 38 28
1013.9845 1009.5805 101.8815 125 95 70
1014.1945 1009.0625 101.0235 106 81 60
1013.9285 1009.9225 100.4555 120 108 98
1014.1335 1008.9175 101.5225 118 95 73
1014.0815 1009.3795 101.9735 106 80 59
1014.0275 1008.6355 100.9265 98 83 66
1013.5755 1008.3915 100.9785 90 71 53
1013.7445 1008.4575 100.5245 113 97 77
1013.7315 1009.7435 102.3255 130 98 72
1014.0595 1009.3795 102.1765 101 76 56
1014.1365 1009.3755 101.3765 92 67 48
1014.3295 1008.1265 100.4405 142 135 129
1014.1565 1009.0255 101.5255 141 116 89
1014.1265 1011.1725 100.4695 122 108 97
1013.9675 1010.2645 100.4505 70 64 62
1013.5775 1011.2765 100.4625 143 130 118
1013.9275 1011.9785 100.4705 136 124 113
1014.0235 1010.2745 100.4565 107 97 88
1014.2755 1011.9295 100.4745 137 124 112
1014.1765 1011.8765 100.4725 124 113 104
1014.2235 1011.9245 100.4745 138 125 115
1013.8765 1010.3235 100.4535 116 104 94
1014.2265 1011.0245 100.4685 134 124 114
1013.5745 1012.0765 100.4665 133 121 110
1013.6875 1010.5235 100.4505 63 58 55
1013.6775 1011.7235 100.4655 144 130 116
1013.5675 1010.6215 100.4495 122 105 88
1014.0265 1011.7695 100.4695 142 133 123
1013.8735 1012.1215 100.4715 134 123 112
1013.6855 1010.1275 100.4475 108 90 74
1014.0285 1010.9775 100.4665 126 113 101
1014.1265 1011.4755 100.4695 128 118 110
1014.1725 1011.7745 100.4715 133 121 110
1013.9275 1010.2345 100.4535 113 106 98
1014.0265 1011.6255 100.4685 123 113 103
1014.3235 1011.2265 100.4685 129 116 104
1014.1745 1011.9795 100.4735 143 132 121
1013.7715 1011.0255 100.4635 139 128 118
1014.1755 1012.1785 100.4745 132 118 105
1013.7255 1010.9295 100.4605 130 113 99
1013.6235 1010.9285 100.4605 138 124 112
1013.9225 1011.6735 100.4685 143 128 114
1013.9755 1010.1215 100.4485 74 64 59
1014.1255 1010.3775 100.4585 113 100 89
1013.5755 1012.0275 100.4665 133 121 110
1013.7505 1010.6095 100.4495 144 127 109
1013.7745 1010.4235 100.4555 104 91 80
1013.7235 1011.7765 100.4635 146 134 122
1013.5745 1011.9715 100.4675 143 131 119
1013.6245 1010.7755 100.4495 72 65 63
1013.5795 1011.8255 100.4625 143 132 119
1013.8225 1010.3265 100.4545 103 93 83
1013.5725 1010.1235 100.4455 125 108 91
1013.8735 1012.1755 100.4705 137 126 114
1013.9725 1012.3255 100.4695 136 126 117
1014.3235 1011.1745 100.4675 122 110 99
1013.9775 1010.4735 100.4565 130 119 109
1013.8275 1010.2835 100.4485 89 79 71
1013.8775 1010.2295 100.4525 111 102 93
1013.7775 1011.7255 100.4655 142 129 117
1013.8255 1011.3755 100.4655 140 127 114
1014.2255 1011.3245 100.4675 119 108 99
1013.6735 1011.0725 100.4595 139 132 124
1013.5345 1010.8945 100.4495 148 131 113
1014.1775 1012.0765 100.4735 135 123 111
1013.7255 1012.2725 100.4685 132 119 108
1013.6245 1010.2785 100.4525 113 94 79
1013.8295 1010.3915 100.4495 54 48 45
1013.6225 1010.5235 100.4525 117 107 98
1014.2225 1010.8735 100.4665 120 106 94
1013.8765 1010.6755 100.4595 129 116 105
1013.7755 1011.2265 100.4645 147 135 121
1013.9775 1012.2265 100.4695 136 127 117
1013.6775 1010.6255 100.4545 116 106 96
1014.0255 1011.7215 100.4705 131 121 111
1013.6785 1011.8755 100.4675 129 118 107
1013.8745 1012.0255 100.4705 125 114 104
1014.0775 1010.5745 100.4625 110 98 90
1013.6265 1010.5755 100.4545 117 110 105
1013.7265 1010.7715 100.4565 125 115 105
1014.1255 1011.2725 100.4665 137 126 116
1013.6745 1012.3255 100.4675 136 124 112
1013.5555 1010.4835 100.4495 62 58 55
1014.1265 1011.5235 100.4675 144 134 124
1014.3265 1011.3745 100.4705 125 113 103
1014.0735 1012.2285 100.4705 132 120 109
1014.3245 1012.0265 100.4755 133 121 111
1013.5775 1011.4265 100.4645 139 126 114
1013.6255 1011.6265 100.4655 145 132 119
1013.8685 1010.4395 100.4495 68 61 58
1013.6265 1010.6235 100.4535 126 115 106
1014.2745 1010.6735 100.4645 119 107 97
1013.9775 1011.9265 100.4705 136 122 110
1014.0745 1010.3265 100.4575 108 101 95
1014.2255 1011.1755 100.4665 127 117 107
1014.3265 1010.7775 100.4655 114 105 96
1013.5785 1010.2655 100.4475 124 111 99
1014.2265 1011.3705 100.4705 134 120 107
1013.8245 1011.1735 100.4635 138 129 116
1013.5785 1010.5255 100.4475 85 77 68
1014.2275 1010.9745 100.4695 126 114 105
1013.6265 1011.0765 100.4595 141 131 120
1013.5765 1011.3235 100.4615 138 129 121
1014.3285 1011.6725 100.4705 123 111 100
1014.3285 1010.5775 100.4615 101 90 82
1013.9325 1010.1175 100.4535 113 104 95
1014.2235 1010.2735 100.4595 104 94 85
1013.9285 1011.1255 100.4635 141 132 121
1014.2765 1010.7825 100.4665 109 101 94
1014.2245 1011.6265 100.4705 138 124 110
1014.2255 1010.6735 100.4635 127 114 101
1013.9745 1010.4715 100.4435 112 81 61
1014.2265 1010.2235 100.4565 96 86 78
1014.2275 1011.4205 100.4685 145 132 121
1014.0255 1010.4735 100.4575 124 112 102
1013.6245 1011.4235 100.4675 149 135 121
1013.7245 1010.2805 100.4545 107 94 83
1014.1255 1010.2745 100.4585 104 93 85
1013.5785 1011.5765 100.4635 145 135 124
1014.0775 1011.8265 100.4715 124 116 107
1013.8245 1011.8735 100.4645 140 129 118
1013.5765 1010.6775 100.4535 123 110 99
1014.3255 1011.0715 100.4655 115 103 93
1014.0165 1010.2695 100.4485 63 57 54
1013.5805 1010.5775 100.4485 125 108 92
1014.0195 1010.1715 100.4495 80 72 69
1014.0285 1010.1295 100.4535 100 85 73
1014.1255 1011.3235 100.4655 128 117 106
1013.6805 1010.7275 100.4545 121 109 97
1014.0745 1012.0775 100.4715 133 121 110
1014.0275 1010.5775 100.4605 114 103 94
1014.0245 1010.7245 100.4615 126 114 103
1014.2745 1012.0785 100.4745 139 129 119
1014.0775 1010.6765 100.4625 123 111 101
1014.3225 1011.6215 100.4715 143 130 119
1014.0735 1010.8235 100.4675 111 100 90
1014.2285 1011.1255 100.4655 131 121 110
1014.1235 1011.0285 100.4695 120 112 105
1014.3265 1010.9215 100.4695 121 108 95
1013.8775 1011.0235 100.4635 138 127 117
1013.9295 1010.4715 100.4535 122 110 99
1013.6175 1010.4795 100.4485 107 93 79
1014.2745 1010.5805 100.4635 126 115 106
1013.7745 1012.1745 100.4695 128 115 103
1013.7775 1010.4735 100.4545 108 99 90
1013.8755 1011.2775 100.4645 144 132 119
1013.9755 1010.3225 100.4555 118 108 99
1013.7275 1011.8795 100.4675 130 120 109
1013.8735 1011.0735 100.4625 133 123 112
1014.2245 1010.5255 100.4605 111 102 95
1014.0265 1011.2225 100.4665 134 119 107
1013.5805 1010.3255 100.4525 120 104 90
1013.9745 1010.5235 100.4575 114 104 96
1013.9765 1011.7235 100.4715 140 125 111
1014.1735 1012.2735 100.4725 139 127 116
1013.7265 1012.3245 100.4685 133 121 108
1013.8795 1010.1765 100.4525 119 106 95
1014.1245 1011.3745 100.4695 119 107 97
1014.1285 1011.7235 100.4705 139 127 114
1013.6745 1010.4715 100.4545 117 106 96
1013.9795 1011.5795 100.4665 134 124 114
1014.0775 1011.6245 100.4705 126 113 100
1013.8735 1011.8755 100.4675 138 125 113
1013.8735 1010.3815 100.4535 115 105 97
1014.1245 1011.4265 100.4705 132 121 111
1014.1765 1010.5245 100.4595 112 103 96
1014.1725 1011.5765 100.4685 128 117 107
1014.0615 1010.1235 100.4485 72 64 61
1013.5755 1012.1245 100.4635 135 124 113
1013.6265 1010.3725 100.4545 114 103 94
1013.6805 1010.2235 100.4485 101 87 74
1014.3255 1011.2715 100.4675 130 115 103
1013.6225 1010.7215 100.4525 120 108 97
1014.1225 1010.8225 100.4675 99 90 83
1014.2755 1010.4225 100.4595 119 107 97
1013.9255 1011.4215 100.4665 148 136 124
1013.5735 1012.1735 100.4645 137 125 114
1013.7755 1010.1275 100.4475 97 84 76
1013.5815 1010.8315 100.4475 163 154 145
1013.6265 1010.7345 100.4485 108 97 90
1013.7235 1010.9765 100.4625 132 116 102
1013.7735 1011.4755 100.4665 141 129 118
1013.6715 1011.0265 100.4615 132 119 108
1013.9745 1011.9745 100.4715 135 121 108
1013.9745 1012.0235 100.4715 130 117 106
1014.1235 1010.2275 100.4565 95 85 77
1013.6285 1010.5715 100.4475 115 101 88
1014.1285 1011.6235 100.4695 135 122 109
1013.8195 1010.1235 100.4515 120 106 94
1014.3255 1011.5765 100.4695 129 118 107
1013.9755 1011.4755 100.4665 137 126 115
1013.9745 1011.3285 100.4655 122 112 101
1013.9755 1011.1735 100.4635 129 118 107
1013.9245 1012.1265 100.4715 133 121 110
1014.0755 1010.7255 100.4635 117 106 96
1013.9255 1010.9735 100.4625 131 119 108
1014.1745 1011.7245 100.4705 134 121 109
1014.0265 1011.4705 100.4685 138 124 111
1014.0755 1010.9745 100.4695 121 109 99
1014.2255 1012.0765 100.4735 142 132 123
1013.7255 1011.8275 100.4635 139 128 117
1014.0765 1010.8715 100.4675 127 116 106
1013.7735 1011.4245 100.4675 148 134 120
1014.3265 1011.9745 100.4745 133 120 109
1013.9255 1012.0735 100.4725 130 118 107
1014.2755 1011.8745 100.4735 127 116 106
1013.7745 1011.5215 100.4665 142 129 119
1014.2765 1011.4735 100.4695 130 119 109
1013.8245 1011.0245 100.4635 125 119 113
1013.9745 1012.1785 100.4695 126 116 106
1013.5705 1010.2275 100.4475 126 111 96
1013.6275 1011.9235 100.4685 146 133 120
1014.0275 1010.3255 100.4575 124 111 100
1013.6225 1012.1275 100.4645 126 114 102
1014.1755 1011.3725 100.4695 132 118 106
1014.2755 1010.9235 100.4685 122 110 100
1013.6175 1010.6095 100.4485 124 107 90
1014.3225 1010.3295 100.4595 117 106 96
1013.5765 1011.7245 100.4645 140 124 108
1013.6725 1010.3785 100.4545 114 102 91
1014.2735 1010.5255 100.4615 104 95 88
1013.8765 1011.4765 100.4655 137 127 117
1013.9735 1011.7765 100.4695 143 129 117
1014.3255 1010.8265 100.4675 97 86 77
1013.8735 1010.9715 100.4625 131 120 111
1013.8705 1010.1765 100.4485 92 82 76
1013.6785 1010.1295 100.4535 117 100 85
1013.8785 1010.2675 100.4485 83 74 67
1013.7785 1012.2255 100.4695 134 121 109
1013.7265 1010.2665 100.4495 76 68 62
1014.0625 1010.2695 100.4495 102 86 75
1013.8865 1010.4875 100.4495 102 90 78
1013.6755 1011.5245 100.4665 141 128 116
1013.9265 1010.8255 100.4635 126 113 102
1013.9275 1011.2725 100.4645 134 125 115
1014.3235 1012.3265 100.4745 130 117 105
1014.2245 1012.1235 100.4735 138 127 116
1014.1785 1011.9275 100.4735 136 123 112
1013.7775 1011.3235 100.4655 123 113 104
1014.2255 1011.0745 100.4655 121 111 102
1013.6235 1011.3225 100.4635 143 130 117
1013.6245 1011.4725 100.4675 140 126 112
1013.9275 1012.2775 100.4695 137 123 110
1013.8765 1011.8235 100.4665 142 132 123
1013.9245 1011.7735 100.4685 142 129 117
1013.5865 1010.7125 100.4495 144 126 109
1013.7755 1010.1715 100.4515 121 111 102
1013.7275 1010.4235 100.4565 110 100 90
1014.2755 1010.3225 100.4595 118 106 95
1013.6745 1010.2655 100.4485 74 62 56
1014.2755 1011.6245 100.4695 123 113 104
1013.5805 1010.2315 100.4515 141 129 118
1014.0755 1011.1735 100.4675 121 105 91
1014.0755 1010.3785 100.4575 109 100 93
1013.7265 1011.2765 100.4625 143 130 117
1013.8845 1010.3365 100.4495 110 97 85
1013.7245 1011.6755 100.4655 145 132 120
1013.8245 1010.4275 100.4545 91 82 75
1014.2755 1011.7265 100.4685 124 114 104
1013.8685 1010.2745 100.4525 97 86 76
1014.0245 1011.8245 100.4705 132 124 115
1013.6765 1010.6735 100.4535 133 121 109
1014.1245 1010.5745 100.4635 107 94 84
1013.7765 1010.2225 100.4475 69 62 57
1013.6715 1010.6835 100.4495 114 102 91
1014.0235 1010.4165 100.4585 118 105 95
1013.5745 1012.3255 100.4665 132 118 105
1013.7265 1011.0745 100.4605 136 125 114
1013.6775 1010.1805 100.4505 136 122 110
1014.0735 1010.2785 100.4565 96 87 80
1014.2735 1011.0255 100.4665 126 118 110
1013.7065 1010.3025 100.4495 71 66 62
1014.1245 1010.9225 100.4705 104 96 89
1014.0755 1012.3245 100.4725 137 125 114
1013.8265 1011.6745 100.4675 150 138 127
1014.1755 1010.4745 100.4595 110 100 91
1013.8255 1011.5275 100.4645 138 126 113
1013.9265 1010.2795 100.4545 103 90 80
1013.5755 1012.2755 100.4655 139 126 113
1013.5765 1011.6735 100.4655 148 133 117
1014.2765 1011.1215 100.4675 134 121 109
1013.9225 1010.3795 100.4545 117 105 94
1014.1245 1011.0765 100.4705 122 109 99
1013.5735 1011.6255 100.4655 130 116 104
1014.1235 1011.9285 100.4725 130 119 109
1014.0785 1011.2775 100.4655 139 126 115
1014.2785 1011.5285 100.4685 135 122 111
1013.5745 1011.1245 100.4605 140 127 113
1013.5765 1010.5775 100.4535 117 105 94
1013.6745 1010.8245 100.4575 131 118 107
1014.3235 1011.5265 100.4685 131 120 110
1013.6245 1010.3245 100.4535 126 114 103
1013.6245 1012.0775 100.4655 129 117 106
1013.6255 1011.6755 100.4655 146 131 116
1014.2235 1011.5785 100.4685 124 114 105
1013.7765 1011.5725 100.4645 140 127 116
1014.0215 1011.0745 100.4685 120 109 100
1014.1745 1010.9735 100.4705 126 113 101
1013.6765 1011.5765 100.4665 134 123 112
1014.1275 1010.4245 100.4575 117 105 94
1013.5755 1010.9275 100.4595 144 132 119
1013.8785 1011.5245 100.4645 147 135 122
1014.0275 1012.0765 100.4725 133 123 113
1013.6225 1010.7725 100.4535 125 117 108
1013.9745 1011.6255 100.4695 132 121 110
1013.9255 1011.0745 100.4615 113 105 97
1014.1765 1011.4755 100.4685 133 122 111
1013.7715 1010.1115 100.4525 121 105 90
1013.7095 1010.5275 100.4495 84 74 65
1013.9775 1011.0755 100.4655 129 118 108
1014.2765 1011.0755 100.4665 129 118 108
1013.9735 1012.1255 100.4715 128 116 106
1014.1265 1011.9775 100.4735 130 119 109
1014.1235 1010.6775 100.4635 126 112 100
1014.1255 1010.3275 100.4585 116 105 96
1013.6255 1010.2305 100.4525 120 104 90
1014.1785 1012.2255 100.4735 143 131 120
1014.0265 1011.9765 100.4725 137 126 116
1013.9735 1011.0225 100.4645 134 124 114
1014.0775 1012.1765 100.4705 134 121 110
1013.6755 1011.1735 100.4605 142 131 119
1013.6785 1010.1775 100.4485 109 90 74
1013.6785 1011.4255 100.4675 134 121 109
1014.3265 1010.7225 100.4635 116 105 95
1014.1265 1012.1795 100.4725 135 122 110
1013.6225 1010.9775 100.4595 131 116 103
1014.0255 1011.1725 100.4665 124 111 101
1014.1715 1011.2765 100.4665 142 132 124
1013.6255 1010.2265 100.4485 123 105 89
1013.5305 1010.5195 100.4515 132 125 118
1014.3225 1011.3265 100.4705 108 97 88
1014.3225 1010.8765 100.4695 121 105 92
1014.2745 1010.8275 100.4675 128 114 101
1014.3255 1010.3805 100.4585 116 106 96
1013.6255 1011.1225 100.4605 131 119 108
1013.9225 1010.6715 100.4585 118 110 102
1013.7315 1010.2325 100.4515 109 102 94
1013.5725 1011.7735 100.4645 145 131 118
1014.2725 1010.4725 100.4595 112 101 91
1013.5725 1010.9725 100.4595 136 124 113
1013.7235 1010.3735 100.4565 105 94 85
1014.0745 1011.1245 100.4695 140 124 110
1013.8255 1010.3805 100.4545 101 91 82
1013.6275 1010.8255 100.4575 137 125 113
1013.6675 1010.6295 100.4495 124 106 92
1013.9745 1011.2245 100.4645 132 121 112
1013.7235 1011.0265 100.4615 136 126 115
1013.7255 1010.2215 100.4485 92 82 73
1014.3275 1010.2755 100.4605 108 99 89
1014.3275 1012.1275 100.4715 137 126 115
1013.9785 1010.8245 100.4655 123 109 96
1013.5725 1010.1775 100.4515 118 99 83
1014.0705 1010.9235 100.4685 124 114 104
1013.8245 1011.5745 100.4635 142 129 115
1014.0785 1010.2265 100.4555 93 83 74
1014.0725 1011.6775 100.4705 143 131 116
1013.7735 1010.8745 100.4605 123 109 97
1014.2785 1010.7235 100.4645 120 109 99
1013.7275 1012.1245 100.4655 140 131 121
1013.6285 1011.8275 100.4645 136 125 114
1013.9275 1011.9295 100.4705 133 119 107
1013.6275 1011.0255 100.4605 137 127 117
1014.1755 1010.6265 100.4625 104 93 85
1014.3255 1010.1245 100.4595 118 106 95
1013.8755 1010.8265 100.4635 128 115 103
1014.0765 1011.9265 100.4725 131 120 111
1013.7255 1011.1245 100.4625 138 126 113
1013.6815 1010.3255 100.4545 113 99 87
1013.7415 1010.6755 100.4475 103 76 56
1014.1285 1010.1775 100.4565 101 88 79
1013.9755 1011.2795 100.4625 137 128 118
1013.9765 1010.2295 100.4535 99 90 82
1014.3255 1010.6255 100.4635 118 107 99
1014.1235 1011.6765 100.4705 150 137 122
1013.9265 1011.6265 100.4685 143 129 117
1013.6705 1010.3515 100.4505 126 107 91
1013.9185 1010.5185 100.4505 70 64 61
1014.2305 1010.3775 100.4595 113 102 93
1014.3235 1011.0245 100.4665 136 127 118
1013.5765 1011.2255 100.4615 151 138 126
1014.0275 1011.4185 100.4685 141 126 113
1013.8275 1010.9735 100.4635 123 115 107
1013.8785 1010.4675 100.4535 101 90 81
1014.0755 1011.8755 100.4725 131 120 110
1014.2225 1011.7295 100.4695 127 116 106
1013.7735 1011.9755 100.4685 136 123 112
1014.0755 1010.4225 100.4575 106 97 89
1014.0735 1011.5275 100.4675 143 134 126
1014.3265 1011.4735 100.4695 123 111 100
1013.6265 1011.5765 100.4655 135 123 112
1013.9745 1010.7245 100.4605 125 114 104
1013.8765 1010.2275 100.4495 80 73 67
1013.8325 1010.1775 100.4515 112 108 104
1014.2255 1010.1265 100.4585 111 99 88
1013.6255 1012.2735 100.4675 133 118 104
1013.7755 1010.5235 100.4565 118 109 99
1014.0755 1011.3735 100.4665 121 112 103
1014.0765 1010.1255 100.4535 102 91 84
1013.8305 1010.3285 100.4495 81 75 70
1013.9735 1011.8245 100.4695 133 123 114
1013.8195 1010.2255 100.4475 82 74 66
1013.8265 1011.9775 100.4685 130 119 108
1013.6795 1011.3255 100.4645 136 126 116
1013.8255 1010.6755 100.4585 129 117 106
1014.2245 1011.8745 100.4725 124 111 99
1014.0785 1010.1785 100.4545 98 88 80
1013.8775 1010.7235 100.4585 117 105 96
1013.7745 1011.7735 100.4655 145 135 124
1013.7755 1011.1765 100.4635 148 138 125
1013.9255 1010.6255 100.4595 128 118 109
1013.8745 1010.5285 100.4575 100 91 83
1014.3265 1011.7265 100.4705 122 109 99
1014.0215 1010.1205 100.4465 86 74 67
1014.1275 1010.7765 100.4645 112 104 97
1013.9765 1010.9735 100.4635 129 117 105
1013.9655 1010.5095 100.4465 113 97 81
1013.9735 1010.1785 100.4485 89 78 70
1014.1255 1011.2255 100.4685 135 123 112
1013.7245 1010.1755 100.4515 116 104 93
1013.9285 1010.2195 100.4485 83 73 65
1013.7245 1011.9775 100.4685 132 119 107
1013.6245 1010.1705 100.4475 129 114 100
1013.7785 1010.2775 100.4545 95 85 76
1014.1785 1012.0245 100.4735 131 120 110
1013.9785 1011.1255 100.4645 135 122 110
1014.2775 1011.3225 100.4695 126 115 105
1013.8735 1012.2265 100.4705 136 125 114
1013.6745 1012.0755 100.4665 130 118 107
1013.8745 1010.6265 100.4585 117 103 92
1014.3305 1012.1765 100.4725 135 123 112
1013.8765 1010.5785 100.4585 127 114 103
1013.9255 1010.5785 100.4585 111 102 93
1014.1775 1012.1265 100.4755 138 125 115
1013.9245 1010.8775 100.4635 131 120 111
1014.0735 1010.4175 100.4435 106 92 81
1013.6795 1011.4745 100.4675 151 138 126
1014.0255 1012.2775 100.4715 140 128 116
1014.0325 1011.5745 100.4665 138 128 119
1013.5735 1011.1735 100.4615 138 125 112
1014.2775 1012.2795 100.4745 136 125 114
1013.6745 1011.6765 100.4665 145 130 115
1014.3225 1011.8245 100.4715 136 130 122
1013.9805 1010.1745 100.4525 109 100 91
1013.5795 1010.4255 100.4535 111 99 88
1014.1735 1010.2215 100.4575 101 91 82
1014.1765 1011.4255 100.4695 140 127 115
1014.1265 1010.1605 100.4475 105 89 78
1013.9255 1011.4775 100.4655 131 119 107
1014.2725 1012.3285 100.4715 129 116 103
1014.2265 1011.7785 100.4695 133 122 111
1014.1255 1010.8745 100.4695 119 112 106
1013.7225 1010.1275 100.4475 107 85 67
1013.7765 1012.1235 100.4685 132 121 111
1013.6265 1011.2265 100.4625 139 125 112
1013.9265 1010.9255 100.4645 135 124 114
1013.9285 1011.5755 100.4655 135 123 112
1013.8755 1012.3275 100.4705 140 128 117
1013.7255 1010.7235 100.4565 127 113 101
1013.8775 1011.6225 100.4675 135 124 113
1014.0765 1011.4735 100.4685 126 118 110
1013.7255 1010.3275 100.4565 106 96 87
1013.8245 1011.4785 100.4655 133 123 113
1013.6265 1011.7735 100.4635 152 139 128
1013.7275 1010.6255 100.4565 121 108 98
1013.8285 1011.1255 100.4635 148 139 129
1013.7745 1012.0765 100.4685 135 123 112
1014.0725 1010.6245 100.4625 117 106 99
1014.1245 1010.7265 100.4645 124 113 103
1013.7755 1012.0265 100.4695 126 113 102
1013.6265 1011.8755 100.4675 130 117 105
1014.0755 1012.0225 100.4725 130 118 108
1014.0255 1011.3735 100.4695 135 123 113
1013.6795 1010.7755 100.4555 115 104 92
1014.0255 1012.1755 100.4705 134 123 112
1013.6745 1011.8255 100.4635 143 131 118
1014.0765 1012.2765 100.4715 133 119 107
1014.1765 1010.4185 100.4595 113 102 94
1013.6705 1011.3735 100.4675 136 123 111
1013.7275 1011.6225 100.4655 136 124 112
1013.6765 1012.1755 100.4685 130 116 104
1014.1755 1011.8255 100.4715 127 119 112
1013.9215 1012.3265 100.4695 141 128 116
1013.7235 1011.4275 100.4665 145 132 119
1014.1755 1010.1265 100.4575 102 90 82
1013.7765 1011.9245 100.4685 138 124 111
1013.8765 1011.3745 100.4645 140 127 116
1014.2725 1011.4235 100.4705 139 126 114
1013.6695 1010.2325 100.4515 124 109 95
1014.1285 1012.0725 100.4715 128 118 109
1013.6255 1011.1755 100.4605 136 123 111
1014.1765 1011.2245 100.4675 129 116 105
1013.7745 1010.7745 100.4595 129 119 110
1014.1755 1011.3245 100.4675 120 109 98
1013.8235 1010.2285 100.4525 114 103 93
1014.2735 1010.2735 100.4605 107 96 86
1014.1755 1010.2765 100.4595 108 99 91
1013.9725 1010.3755 100.4575 128 116 107
1014.0265 1010.1805 100.4535 111 99 90
1013.8265 1010.1275 100.4475 95 81 70
1013.7765 1011.3745 100.4675 135 121 109
1013.9265 1011.5295 100.4665 148 134 121
1013.8245 1012.2245 100.4695 138 126 113
1013.6245 1010.4305 100.4495 124 107 90
1014.2255 1010.4725 100.4595 119 109 101
1013.7225 1011.5255 100.4665 149 138 127
1013.7765 1011.6765 100.4655 143 130 117
1013.7805 1010.3775 100.4555 112 99 88
1014.3255 1012.2765 100.4735 136 126 116
1014.0265 1011.6745 100.4695 140 128 116
1013.7265 1011.1735 100.4625 144 135 124
1014.2255 1012.0305 100.4745 127 114 102
1014.1055 1010.1255 100.4485 76 69 63
1014.1745 1011.5295 100.4685 141 128 116
1013.8255 1011.4285 100.4655 136 126 116
1013.8265 1010.8265 100.4605 122 113 105
1014.0265 1011.2745 100.4655 136 122 111
1014.1255 1011.5785 100.4675 127 117 108
1014.0255 1011.5255 100.4675 142 130 119
1013.9245 1010.7255 100.4595 112 102 93
1013.7215 1010.1735 100.4475 101 85 71
1013.7285 1010.5785 100.4565 118 108 99
1013.7745 1010.8275 100.4605 130 115 100
1013.8235 1011.9275 100.4655 126 115 106
1014.2265 1010.5765 100.4625 116 104 94
1013.5785 1011.4775 100.4655 142 129 116
1013.6805 1010.5755 100.4545 121 111 101
1014.2235 1012.2235 100.4745 133 123 113
1014.0245 1010.3765 100.4575 119 106 96
1013.7735 1011.2715 100.4645 148 136 124
1013.9215 1011.0255 100.4635 139 130 121
1013.6205 1010.6835 100.4485 121 111 103
1014.2735 1010.3815 100.4595 115 102 90
1013.5795 1010.7185 100.4535 118 106 95
1013.5765 1010.7745 100.4555 137 129 121
1013.8285 1011.2205 100.4645 145 133 121
1013.9785 1010.5785 100.4605 114 102 92
1013.5765 1010.8775 100.4575 134 125 118
1014.3245 1011.8745 100.4735 121 110 99
1013.5745 1010.4185 100.4485 116 104 91
1014.2735 1011.2745 100.4675 141 129 117
1013.6765 1011.6285 100.4655 158 146 133
1014.2295 1010.6245 100.4625 112 100 90
1014.2735 1011.2205 100.4675 130 119 109
1013.9765 1012.2745 100.4695 137 125 113
1014.1245 1011.8215 100.4715 140 131 120
1013.9765 1012.0745 100.4735 134 123 113
1013.6725 1010.8785 100.4575 125 110 98
1014.2735 1010.8775 100.4675 113 101 90
1014.2285 1012.1765 100.4755 126 114 104
1013.8775 1011.7695 100.4685 148 133 120
1013.8745 1010.1215 100.4525 121 107 94
1013.6105 1010.1295 100.4535 123 103 86
1013.6745 1012.0255 100.4685 124 112 102
1013.7725 1010.2335 100.4525 117 106 95
1013.9245 1010.7765 100.4605 120 111 102
1013.6055 1010.3205 100.4495 113 92 76
1013.9265 1010.5255 100.4555 112 102 93
1014.1755 1011.1285 100.4695 121 107 96
1013.6275 1010.4705 100.4525 112 101 90
1013.8725 1011.9745 100.4685 135 124 113
1013.5755 1011.0765 100.4595 144 133 122
1014.0235 1012.1275 100.4705 131 123 114
1013.7755 1010.9265 100.4625 129 112 96
1013.9285 1010.1755 100.4475 100 85 74
1013.8225 1010.5245 100.4575 104 94 84
1013.8245 1010.2715 100.4535 84 75 69
1014.1255 1010.1245 100.4555 107 95 85
1013.9755 1011.8775 100.4695 121 109 99
1014.3255 1010.6715 100.4635 124 112 103
1013.9255 1010.1225 100.4475 94 81 72
1014.2245 1011.2255 100.4665 130 119 109
1014.1275 1012.1265 100.4725 140 129 120
1013.5885 1010.7995 100.4455 112 95 78
1014.0265 1011.1245 100.4685 133 120 109
1014.0815 1010.3175 100.4485 56 51 50
1013.9285 1010.3275 100.4545 114 101 90
1014.1755 1010.5785 100.4615 107 99 92
1014.0735 1011.2255 100.4675 139 124 111
1014.0735 1011.3285 100.4645 125 116 109
1013.5305 1010.3315 100.4525 120 109 98
1013.9075 1010.2675 100.4485 67 60 56
1014.2225 1011.9775 100.4735 136 124 113
1013.5395 1010.7135 100.4495 131 114 99
1013.8785 1011.4225 100.4655 142 132 122
1013.6565 1010.7245 100.4475 132 115 99
1014.0755 1012.1285 100.4705 131 120 109
1013.8735 1011.9255 100.4675 133 121 109
1013.8255 1011.2715 100.4645 139 127 116
1013.9255 1010.4255 100.4545 121 107 96
1013.9275 1011.3235 100.4645 129 119 109
1013.8775 1011.7225 100.4685 144 129 115
1013.9765 1010.6265 100.4595 123 112 102
1014.2745 1010.1275 100.4605 113 100 88
1013.8795 1010.4285 100.4535 131 117 103
1014.1235 1010.9805 100.4705 125 115 105
1014.1225 1010.6225 100.4645 123 111 100
1013.7735 1012.2745 100.4715 144 131 117
1014.3255 1011.9235 100.4735 130 118 107
1014.0735 1011.4235 100.4685 134 121 110
1014.2775 1011.7755 100.4675 119 110 101
1014.2795 1012.1795 100.4725 125 115 106
1013.8295 1012.0755 100.4705 135 124 114
1013.6765 1010.5245 100.4555 108 99 90
1014.0765 1011.7725 100.4695 136 127 115
1013.7775 1010.6715 100.4575 127 114 103
1013.9255 1011.7235 100.4695 135 121 109
1013.6235 1011.2755 100.4635 136 121 108
1014.3265 1010.5235 100.4595 120 110 101
1013.8235 1012.1225 100.4715 136 125 114
1014.3215 1011.4205 100.4695 130 119 108
1013.8275 1010.7225 100.4585 125 113 103
1014.1785 1011.0265 100.4685 127 116 107
1013.6745 1012.1245 100.4665 129 119 109
1013.6735 1011.9245 100.4685 144 131 119
1013.6245 1010.8785 100.4585 137 123 111
1013.7755 1011.0775 100.4615 134 122 110
1013.8265 1012.0285 100.4695 133 120 108
1013.9775 1010.8755 100.4635 132 118 105
1013.8765 1011.5725 100.4645 143 132 122
1013.6265 1011.7265 100.4645 138 124 112
1014.0065 1010.2185 100.4495 108 98 88
1014.2245 1012.2775 100.4745 136 125 115
1014.0745 1011.5805 100.4685 135 124 115
1014.2255 1011.4735 100.4685 136 125 115
1013.6745 1010.4825 100.4435 111 95 80
1013.7265 1012.2265 100.4695 131 119 107
1014.2245 1011.8235 100.4685 131 122 113
1014.1745 1010.3255 100.4595 113 102 92
1013.9755 1011.4235 100.4675 144 132 120
1013.8745 1011.2215 100.4635 138 129 118
1013.9765 1011.6765 100.4705 141 127 114
1013.9775 1010.2275 100.4485 84 73 64
1013.9255 1012.1775 100.4705 135 124 114
1013.9215 1010.4855 100.4485 123 112 103
1013.5785 1010.3775 100.4525 124 110 98
1014.2225 1010.9235 100.4695 118 105 94
1013.6285 1010.5225 100.4495 109 96 83
1014.2775 1010.9745 100.4665 129 118 109
1014.1245 1012.0275 100.4715 121 109 98
1013.8775 1011.1755 100.4635 151 143 130
1014.2245 1010.7785 100.4655 114 105 99
1013.9235 1011.8755 100.4695 125 112 100
1014.0265 1010.8205 100.4665 106 93 84
1014.2775 1011.1745 100.4675 127 114 104
1013.7245 1011.9265 100.4685 143 130 117
1014.3265 1011.1235 100.4665 130 117 105
1014.1775 1010.7795 100.4655 106 99 92
1013.8275 1011.7735 100.4665 149 136 124
1013.5755 1010.4725 100.4525 110 101 93
1013.7255 1012.1775 100.4665 132 121 109
1014.2285 1011.5225 100.4685 137 127 117
1013.8255 1012.1755 100.4705 138 124 110
1013.5695 1010.3185 100.4485 113 94 81
1014.2745 1011.6735 100.4695 139 128 117
1013.8265 1010.1725 100.4485 100 87 75
1013.7265 1010.8755 100.4595 134 119 106
1013.5745 1010.3745 100.4495 100 80 65
1014.1245 1010.4735 100.4575 114 101 90
1014.0195 1011.9255 100.4715 131 118 107
1014.0785 1011.9755 100.4725 131 120 110
1013.8265 1011.6235 100.4655 134 121 109
1014.1265 1011.8745 100.4715 117 108 100
1014.0245 1011.0245 100.4675 128 117 107
1013.5725 1010.5235 100.4535 105 98 91
1013.9825 1010.1335 100.4525 101 87 76
1014.1755 1010.3745 100.4585 107 96 88
1013.8765 1010.1305 100.4475 87 75 68
1013.7245 1011.3235 100.4645 126 114 103
1014.1735 1012.3275 100.4735 140 127 115
1014.0225 1010.5225 100.4595 111 100 91
1013.7555 1010.2625 100.4485 121 103 87
1013.7725 1011.8755 100.4665 133 122 109
1014.0265 1010.7745 100.4645 110 102 95
1014.3255 1010.4245 100.4585 114 103 92
1014.1255 1010.5215 100.4605 103 93 84
1013.5755 1011.8775 100.4655 133 121 108
1014.1745 1011.6815 100.4705 146 133 118
1014.3295 1010.9725 100.4665 124 112 101
1014.1285 1012.2265 100.4725 128 115 103
1014.1775 1010.7205 100.4645 122 114 106
1013.6775 1010.9275 100.4595 123 105 90
1014.2755 1012.2295 100.4745 129 119 111
1013.6605 1010.3235 100.4495 78 73 70
1013.6765 1011.1215 100.4605 138 129 119
1014.1255 1011.1255 100.4705 136 123 112
1013.6215 1010.2735 100.4495 111 92 75
1013.7255 1011.3725 100.4675 134 121 109
1014.1255 1012.2765 100.4715 137 126 116
1013.5745 1011.0255 100.4585 133 123 114
1014.3255 1012.2265 100.4735 129 117 105
1013.7765 1010.1735 100.4485 108 98 89
1013.8255 1012.3265 100.4695 136 124 112
1014.0255 1010.9245 100.4665 132 121 111
1013.6305 1010.1795 100.4525 105 90 76
1013.7745 1010.7215 100.4585 123 110 99
1013.6215 1011.3755 100.4675 134 120 107
1013.8245 1010.4745 100.4565 94 88 81
1014.2275 1010.3265 100.4585 113 102 92
1013.6255 1012.2255 100.4665 134 122 111
1013.8785 1012.0735 100.4705 130 121 112
1013.8755 1012.2755 100.4695 136 124 113
1014.1765 1011.1755 100.4685 123 111 100
1013.5775 1011.3765 100.4645 151 138 124
1013.5855 1010.2785 100.4535 117 99 85
1014.0245 1012.2235 100.4715 133 121 110
1013.6775 1011.2205 100.4625 133 123 113
1013.8265 1011.0735 100.4625 132 123 115
1013.7775 1010.5775 100.4565 126 113 101
1013.9275 1011.8225 100.4685 142 132 122
1013.6255 1012.0265 100.4665 132 120 108
1014.2765 1012.1255 100.4715 132 122 112
1013.6785 1011.7725 100.4645 141 127 115
1014.2755 1012.0265 100.4755 127 114 102
1013.9255 1011.3745 100.4665 131 117 104
1013.8725 1010.7775 100.4605 118 110 103
1013.5765 1010.6255 100.4545 124 112 101
1013.6765 1011.9755 100.4685 139 127 115
1013.9275 1012.0235 100.4715 136 123 111
1014.2735 1011.9765 100.4745 132 120 110
1014.2255 1011.6765 100.4705 151 141 131
1013.9765 1011.5315 100.4665 142 129 117
1014.0765 1010.5235 100.4595 104 94 86
1014.1735 1011.6255 100.4715 133 121 110
1013.6725 1010.9775 100.4615 143 127 112
1013.8765 1011.3285 100.4635 131 123 113
1013.9765 1010.6735 100.4605 127 115 104
1014.2745 1010.1785 100.4575 111 99 88
1013.8275 1010.8805 100.4605 123 115 107
1013.7255 1012.0755 100.4675 125 113 100
1013.5745 1011.5245 100.4645 138 126 113
1014.0235 1010.6295 100.4615 122 109 99
1014.1245 1011.7735 100.4705 132 118 101
1014.0255 1011.3235 100.4655 113 105 98
1013.8935 1010.3635 100.4505 82 74 72
1013.9765 1010.7765 100.4615 113 103 94
1014.2745 1011.5775 100.4675 134 124 113
1013.7775 1010.3295 100.4555 113 101 91
1014.2785 1011.8245 100.4675 128 121 114
1014.2235 1012.3255 100.4745 138 126 115
1013.5765 1010.1735 100.4475 135 119 103
1013.8215 1010.7735 100.4595 112 101 93
1014.2265 1010.1785 100.4575 100 88 77
1014.1545 1010.2285 100.4495 62 56 52
1014.2275 1010.8245 100.4665 113 100 89
1014.3245 1010.4725 100.4595 116 107 99
1013.6745 1010.2765 100.4535 111 99 90
1013.6275 1010.4275 100.4545 117 105 95
1013.9295 1012.2245 100.4695 138 127 116
1014.1795 1010.1785 100.4565 100 89 79
1013.7265 1010.5275 100.4555 113 105 98
1013.7725 1010.3655 100.4505 101 88 79
1013.7745 1011.1245 100.4635 139 129 119
1013.7255 1010.6755 100.4575 130 117 104
1013.6755 1012.2755 100.4685 133 120 108
1013.6225 1010.1265 100.4475 120 102 85
1013.6285 1010.6735 100.4535 122 110 99
1014.1755 1010.8285 100.4655 112 101 93
1014.2215 1011.2725 100.4665 130 121 111
1013.9735 1011.3735 100.4675 132 118 104
1013.7255 1010.4765 100.4555 108 97 87
1013.8755 1011.1235 100.4635 143 133 121
1013.6235 1011.5225 100.4665 155 141 128
1013.7265 1011.4745 100.4665 136 122 110
1014.3245 1011.7755 100.4685 125 114 105
1014.1735 1010.6775 100.4645 104 96 88
1013.7265 1012.0275 100.4675 126 113 100
1013.7745 1010.9735 100.4635 132 118 105
1014.2265 1010.7235 100.4625 114 103 93
1013.8245 1012.2735 100.4695 139 126 112
1013.7805 1010.6235 100.4575 127 112 99
1014.2255 1010.4225 100.4585 113 101 91
1013.6775 1012.2255 100.4685 137 123 111
1014.0265 1012.3255 100.4705 138 127 117
1013.7735 1011.8245 100.4655 137 129 121
1013.8245 1011.8245 100.4655 140 131 122
1013.8225 1010.5775 100.4585 119 107 97
1013.7265 1011.2245 100.4625 143 130 117
1013.5735 1010.6635 100.4495 118 103 90
1013.9235 1010.1725 100.4525 124 110 97
1013.8265 1010.9255 100.4615 122 111 101
1013.5775 1010.8245 100.4555 126 116 107
1014.3255 1010.1785 100.4585 99 89 80
1013.7255 1011.7255 100.4645 143 130 119
1014.0285 1010.8735 100.4675 134 121 111
1014.0245 1011.8775 100.4705 124 112 101
1014.0725 1011.0245 100.4695 111 103 97
1013.7755 1012.3235 100.4715 140 128 116
1014.0745 1010.7795 100.4645 119 112 106
1014.0785 1011.7245 100.4715 134 124 111
1014.0745 1010.4785 100.4585 108 99 91
1013.7275 1010.8225 100.4585 118 105 96
1013.7255 1011.5745 100.4655 139 128 116
1013.6775 1010.4235 100.4555 109 95 83
1014.2795 1011.3735 100.4705 132 118 106
1013.5765 1012.2245 100.4655 132 119 107
1014.2785 1010.2245 100.4585 89 78 69
1013.9765 1010.9295 100.4635 131 117 104
1013.6595 1010.5795 100.4485 122 106 92
1014.0235 1010.6785 100.4615 124 112 102
1014.1735 1010.8745 100.4685 124 112 103
1014.0275 1010.2225 100.4535 94 83 73
1013.9785 1010.2755 100.4555 112 101 91
1013.6245 1012.3245 100.4675 136 125 114
1013.8755 1010.8735 100.4625 131 117 105
1013.8775 1010.9255 100.4635 138 124 111
1013.8265 1011.3295 100.4645 125 116 107
1014.3265 1010.2245 100.4595 84 77 71
1014.1795 1010.9225 100.4695 121 109 98
1014.1775 1011.0755 100.4685 121 112 105
1013.9755 1010.4275 100.4565 125 112 101
1013.6715 1011.2725 100.4635 137 125 114
1013.8265 1011.7245 100.4685 140 126 114
1014.3275 1012.0765 100.4725 135 125 116
1013.9245 1011.2225 100.4635 140 132 122
1013.9255 1011.1715 100.4625 138 130 120
1013.5735 1011.9235 100.4665 146 132 118
1013.8275 1010.6245 100.4575 125 113 102
1013.7255 1010.1185 100.4525 132 116 101
1013.6255 1012.1785 100.4665 135 121 108
1014.0735 1011.0735 100.4705 129 116 104
1014.1255 1012.3235 100.4725 134 122 112
1014.2765 1010.6265 100.4635 115 103 93
1014.0265 1012.0255 100.4725 130 118 108
1013.8765 1011.6745 100.4685 142 128 115
1013.7775 1011.6245 100.4645 128 117 106
1013.6245 1011.9775 100.4675 147 135 122
1012.7385 1009.4205 102.8265 170 149 126
1013.2745 1008.4145 102.6745 132 102 76
1012.6945 1008.8875 103.0685 175 151 120
1013.0255 1009.7365 103.2725 128 103 80
1013.3695 1008.4395 102.8695 68 56 44
1012.9385 1009.7075 103.5725 116 91 71
1013.0285 1008.4805 103.5285 143 114 84
1013.1205 1008.4655 103.3775 178 152 123
1012.9295 1008.5735 103.1265 166 139 108
1013.3295 1008.4075 102.7235 161 128 94
1013.0085 1009.6925 102.6765 121 94 71
1012.6435 1009.1685 102.7735 192 172 148
1013.1325 1008.4445 102.8685 177 148 114
1012.7915 1009.5125 102.7765 170 150 127
1012.7725 1009.5255 103.3255 137 109 84
1013.0375 1008.4905 103.3765 185 157 124
1012.7555 1009.4395 102.9205 156 129 101
1013.2225 1009.7955 103.5235 143 119 97
1012.6445 1009.1795 103.0345 173 153 130
1012.6415 1008.9905 103.5275 187 167 129
1013.4265 1008.4105 102.6285 154 127 97
1012.8905 1008.5835 103.4225 178 153 123
1012.7065 1009.3475 103.0095 157 134 112
1012.6445 1009.1655 102.9755 186 166 143
1013.1025 1009.7455 103.1525 106 78 56
1012.9625 1008.5605 103.5775 158 132 107
1013.4745 1008.3865 102.9765 168 137 100
1012.9295 1008.5775 102.8755 179 154 127
1013.1825 1009.8065 103.5205 149 124 102
1012.9695 1008.5115 103.4745 126 98 72
1012.7585 1008.7675 103.3245 164 138 114
1012.9375 1008.5445 102.6675 156 127 94
1012.6485 1009.0355 102.9775 174 151 126
1013.4255 1008.3805 102.9745 148 118 85
1013.1175 1008.4605 102.7765 153 124 96
1012.6455 1009.1285 102.8775 181 163 140
1013.1505 1008.4575 102.8345 99 61 38
1012.6765 1009.3755 103.6245 165 140 114
1012.8765 1008.6235 103.0755 168 142 113
1012.8985 1009.6525 102.9985 141 111 85
1012.9805 1008.5365 102.8735 184 159 131
1012.7165 1008.8765 102.8245 159 132 106
1013.5255 1009.7845 103.1265 130 105 82
1013.4695 1009.8025 103.4705 119 95 75
1013.1295 1009.7605 102.5265 144 117 92
1012.6485 1009.2015 102.8755 182 159 132
1013.5145 1008.3845 103.1645 129 106 82
1012.7075 1008.9205 102.7255 157 136 117
1012.6605 1009.0275 102.9775 169 146 121
1012.9525 1009.6995 103.5595 124 98 78
1013.1655 1008.4555 102.5775 170 138 105
1012.8975 1008.5935 102.9825 203 182 153
1012.6595 1009.1755 102.8735 178 160 140
1012.6305 1009.0755 103.6265 161 134 109
1012.6625 1009.0755 102.6745 170 151 131
1012.6355 1009.2225 103.4715 158 137 117
1012.6005 1009.0755 103.4305 177 152 121
1012.7705 1009.5255 103.3765 148 121 96
1012.6565 1009.0335 103.6395 128 106 89
1012.9605 1008.5555 102.6195 146 116 88
1012.9445 1008.5415 103.3355 130 102 74
1012.6455 1009.3175 103.3805 174 151 125
1013.4765 1009.8105 102.6255 132 104 79
1013.3745 1009.8105 103.1265 123 97 74
1013.0155 1008.5125 102.8735 177 151 123
1012.9915 1009.7045 102.7825 135 103 76
1012.6325 1009.1275 103.2255 180 163 143
1012.9255 1008.5795 103.5785 168 141 113
1013.0555 1008.5135 103.3365 187 155 115
1013.3695 1008.3925 103.4755 164 138 106
1012.6585 1009.1275 102.9235 177 160 142
1012.7555 1008.7685 103.3745 170 142 116
1012.7865 1008.7285 103.1285 158 131 104
1012.8635 1009.6385 103.5185 134 108 85
1012.7855 1008.7285 102.5255 162 131 99
1012.6745 1009.0225 102.6245 173 153 131
1012.7115 1008.8685 103.0265 159 133 106
1012.7125 1008.8265 103.4235 166 142 117
1013.3725 1008.3855 102.8255 155 127 93
1012.6875 1009.3735 103.2765 146 117 88
1012.8265 1008.6735 103.1245 157 133 107
1013.4175 1008.3475 103.0815 157 128 95
1013.4775 1008.4155 103.4275 154 125 94
1013.1205 1008.4635 102.6735 166 134 101
1012.9735 1009.7295 103.4745 123 100 80
1013.4725 1009.8045 102.9235 128 100 77
1013.4285 1008.3965 103.5165 181 155 122
1013.2415 1009.8025 102.6625 162 136 110
1012.6565 1009.0195 103.1255 136 109 83
1013.4785 1008.4155 103.4755 177 150 119
1012.6935 1009.3635 103.0305 133 105 80
1013.2225 1008.4265 102.7705 137 111 85
1012.9755 1009.7255 103.5245 128 102 81
1012.8585 1008.6655 102.7265 98 65 46
1012.7425 1009.4615 103.0765 156 131 103
1013.4215 1008.4095 102.6765 170 141 107
1013.2245 1008.4285 103.3775 163 137 107
1013.4815 1009.7945 103.2765 134 109 86
1012.7405 1009.4165 102.6755 158 134 109
1013.5275 1008.4235 102.7245 162 135 98
1012.6925 1008.8355 103.6225 184 160 132
1013.4235 1009.8055 103.4265 147 122 100
1012.6365 1009.0265 103.6265 168 142 117
1013.1215 1008.4625 102.7265 164 133 102
1012.8985 1008.5905 103.5655 202 177 146
1012.8095 1009.5365 103.0245 149 124 99
1012.8745 1008.6275 103.1255 150 126 100
1013.1725 1008.4345 103.1205 138 113 88
1012.7465 1008.7845 102.6335 185 159 127
1012.8805 1009.6695 103.2765 122 98 77
1013.2295 1008.3645 102.9175 152 127 98
1012.9755 1008.5315 102.7255 147 118 88
1013.0805 1009.7525 102.5675 144 121 97
1013.1395 1008.4465 102.9765 168 138 106
1013.4705 1008.3915 102.9275 164 134 99
1012.6435 1009.2735 103.5735 166 142 116
1013.1625 1008.4615 103.4325 167 138 107
1013.3825 1009.7965 102.8275 146 118 91
1013.4795 1009.7935 103.2285 138 111 87
1013.3285 1008.4435 103.1375 86 62 43
1013.0135 1009.7415 103.5315 147 123 102
1012.7545 1009.3785 102.6205 99 85 73
1012.8275 1009.5715 103.1265 138 109 83
1013.4755 1008.4165 103.2755 150 120 88
1013.3275 1008.4345 103.2235 116 90 67
1013.3115 1008.3985 102.5635 189 162 129
1012.7625 1009.4315 102.5235 166 143 117
1012.6755 1009.3725 103.4255 148 124 99
1013.2255 1008.4295 102.9225 136 113 88
1013.0775 1008.4725 102.5235 172 141 109
1012.6435 1008.9865 103.0845 174 151 120
1012.9325 1009.6605 102.8805 132 103 79
1013.5295 1009.7965 102.7285 131 99 72
1012.6425 1008.9315 103.5835 180 158 130
1012.7385 1009.4165 102.7255 161 137 110
1013.3245 1008.4605 103.1255 96 71 50
1012.6955 1009.3535 102.7665 161 132 106
1012.7635 1009.4865 103.1265 157 130 103
1013.0215 1008.5135 103.0775 164 138 110
1012.8595 1008.6585 103.6155 141 111 85
1012.8445 1008.6385 103.5725 177 148 119
1012.6715 1009.2245 102.7755 148 128 106
1013.2255 1009.7855 102.9755 143 117 92
1012.6475 1009.2765 103.0255 152 122 92
1012.8295 1008.6785 102.7275 143 113 84
1013.2165 1009.7965 103.3775 138 114 90
1013.0725 1008.4715 103.5805 150 125 99
1012.6665 1009.0755 102.6225 171 151 129
1012.8745 1008.6205 102.6765 167 136 105
1012.6255 1009.1755 103.4255 171 153 133
1012.6925 1009.4215 103.5765 159 135 110
1013.2885 1008.3955 102.6855 144 117 89
1012.8625 1008.6595 103.0185 155 131 110
1012.8245 1008.6725 103.0755 167 142 116
1013.5245 1008.3835 103.1255 137 106 76
1013.0745 1009.7375 102.8735 142 114 89
1013.2935 1008.4545 102.5035 122 85 62
1012.7185 1008.8745 102.7775 162 138 112
1012.7155 1008.8725 103.0765 153 128 100
1012.8775 1008.6285 102.8745 179 157 133
1013.2375 1008.4625 102.8795 112 81 57
1012.9535 1008.5605 103.3685 107 81 61
1012.8695 1009.6335 103.4275 138 112 88
1012.6355 1009.1265 103.1755 180 162 142
1012.7195 1009.4275 103.2245 152 126 99
1013.4795 1008.4095 102.9235 150 120 86
1012.9735 1008.5295 103.5745 161 136 111
1012.8045 1008.7015 103.0705 150 121 95
1013.4755 1009.7885 103.4765 140 113 89
1013.4715 1008.3935 102.6235 172 144 110
1013.0705 1009.7455 103.2205 137 111 88
1012.8095 1008.7175 102.7235 150 119 91
1012.7715 1009.4765 102.8775 160 134 106
1012.7875 1009.5235 103.0725 151 126 100
1012.9415 1009.7135 103.4725 123 97 76
1012.8085 1008.7115 103.5245 146 116 87
1013.0325 1008.4935 102.7785 163 133 100
1013.2765 1009.8065 103.2245 127 102 80
1013.2765 1009.8095 103.3755 144 116 91
1012.9745 1008.5295 103.3795 147 119 90
1012.7425 1009.5065 103.4755 162 138 113
1012.8275 1009.5735 103.2245 145 117 90
1013.3235 1009.7955 102.8265 136 109 84
1012.7965 1008.6955 103.0295 181 156 120
1012.9825 1008.5325 103.0755 175 149 121
1012.7675 1009.5305 103.5745 123 98 76
1013.4215 1008.4295 103.2245 82 61 44
1013.3235 1008.3885 102.7255 164 136 103
1012.6655 1009.1765 102.5755 180 160 138
1013.0085 1009.6975 102.9245 142 116 92
1013.4245 1009.7975 102.5835 158 126 93
1012.7415 1009.5065 103.5765 119 94 73
1012.7655 1008.7695 102.9255 155 130 105
1012.8055 1008.7145 102.5275 154 120 90
1013.1195 1008.4585 103.1255 153 128 104
1013.0705 1008.5085 102.6165 146 114 85
1013.3235 1009.7975 102.5775 152 121 90
1012.6505 1009.1115 103.1435 167 163 157
1012.7365 1009.4215 102.9265 165 141 114
1013.4625 1009.8045 103.4365 140 118 94
1013.3285 1009.8115 102.7745 128 102 79
1012.6465 1009.3135 103.4755 169 152 134
1013.2255 1009.8065 103.3255 133 107 85
1012.8045 1009.4925 102.8175 171 153 135
1012.8035 1009.4915 102.6175 135 108 88
1013.3935 1008.3495 103.1155 160 141 117
1013.0395 1008.4925 103.3255 181 153 120
1012.7855 1008.7325 102.6265 165 137 104
1013.2755 1009.7955 103.2645 133 104 80
1013.2255 1009.7845 102.8245 140 111 85
1012.8115 1009.4905 102.6735 133 110 91
1012.8295 1008.6765 102.7775 152 122 92
1013.1185 1009.7415 102.7235 128 100 77
1013.0735 1008.5005 102.9745 150 120 92
1012.8385 1008.6375 103.4255 174 151 125
1012.6815 1008.9765 102.5765 182 162 139
1012.7605 1008.7695 103.2765 170 144 121
1012.6295 1009.0775 103.4715 150 127 104
1013.0735 1009.7395 103.1265 126 100 78
1012.7115 1009.3825 103.0265 155 130 103
1012.8665 1008.6165 102.5235 167 139 109
1012.7085 1009.2475 102.7275 157 148 140
1012.9585 1008.5635 102.9285 159 131 106
1012.8115 1009.5875 103.5715 133 106 83
1012.7315 1008.8265 103.0225 174 151 123
1012.7055 1009.2775 102.7325 135 108 91
1013.4665 1009.8065 103.1215 121 98 77
1013.2735 1009.7955 102.5755 141 112 84
1013.1265 1009.7595 102.9255 139 113 89
1013.3425 1008.3915 103.0215 153 133 108
1012.9745 1009.6835 102.8755 127 99 76
1013.2715 1008.4355 103.1285 135 108 83
1013.0765 1008.4705 103.5265 146 117 86
1012.6605 1009.0745 102.7765 179 161 140
1012.7195 1009.3265 103.1955 146 133 119
1012.6575 1009.2835 103.3795 165 146 128
1012.8265 1008.6755 102.6255 176 147 116
1012.6325 1009.1775 103.3245 174 156 136
1012.7425 1009.4625 103.1255 162 138 112
1013.0285 1009.7125 102.6755 128 100 76
1012.8435 1008.6405 103.4725 200 177 148
1013.3745 1009.8105 103.4265 138 113 90
1012.6985 1009.4095 103.1845 162 138 104
1013.0745 1008.4765 103.1285 157 130 101
1013.1765 1008.4395 103.4765 149 122 93
1012.7045 1008.9155 102.8275 172 152 130
1013.1945 1009.8015 103.2785 126 99 80
1013.3265 1008.3815 102.8285 151 123 91
1012.9395 1008.5405 102.5795 175 147 113
1012.6545 1009.2315 103.1685 151 129 109
1013.2855 1009.8045 103.1285 137 111 87
1012.7055 1009.2625 102.5665 163 146 124
1013.0255 1009.7185 102.9785 143 117 93
1013.3925 1008.3775 103.1135 126 110 92
1012.8225 1008.6735 103.2225 180 159 135
1012.7545 1008.8125 103.0785 116 87 66
1013.1725 1008.4595 103.4825 119 88 62
1012.7905 1009.5115 102.8765 163 140 114
1012.6305 1009.0265 103.3775 152 127 100
1012.7905 1008.7295 102.6755 159 129 94
1012.6445 1008.9875 103.4195 167 145 118
1012.9955 1009.7055 102.5355 125 88 59
1012.6475 1009.0425 102.7815 184 164 134
1012.6475 1009.2675 103.1815 183 163 139
1013.0745 1009.7345 102.6755 124 98 77
1013.2225 1009.7925 103.2235 131 104 81
1013.2265 1008.4255 102.6745 157 129 100
1012.7425 1009.4515 102.7845 173 156 137
1013.1715 1009.7925 103.4745 148 118 93
1012.7445 1008.7935 103.0715 164 140 112
1013.2765 1009.7935 103.5265 140 113 90
1012.7445 1009.4525 102.8445 169 136 101
1012.7685 1009.5285 103.4745 150 124 99
1012.9155 1009.6405 102.8735 137 108 82
1012.7875 1008.7315 102.8235 159 132 102
1012.6645 1009.0255 102.9245 169 147 122
1012.7915 1009.5605 103.4795 153 124 95
1012.6715 1009.2265 102.7265 140 117 96
1012.6395 1009.2245 103.6245 177 153 129
1013.0725 1009.7385 103.0245 142 115 90
1013.0745 1009.7375 102.8245 142 115 89
1013.0275 1009.7175 102.8255 142 114 88
1012.8215 1009.5295 102.6265 159 135 109
1012.8695 1009.5815 102.5735 156 129 101
1013.1255 1008.4665 103.2265 179 157 132
1013.1315 1009.7585 102.7315 137 106 79
1012.8785 1008.6255 102.8265 176 152 125
1012.6615 1009.0905 103.6405 128 110 93
1013.4795 1009.7905 103.1305 123 99 78
1012.8575 1008.6575 102.8275 162 137 112
1013.0765 1009.7625 103.3765 137 112 90
1012.6595 1009.0185 103.4365 114 89 65
1013.2305 1008.4515 103.2785 152 126 101
1013.0175 1009.7425 103.4725 132 106 84
1012.7125 1009.2835 102.7945 144 127 113
